-0.972935 0.015016 -0.148605 1.000000 0.000000 0.000000
0.086363 -0.023760 0.168572 1.000000 0.000000 0.000000
0.536151 0.017925 -0.319893 1.000000 0.000000 0.000000
-0.615401 -0.006825 -0.235490 1.000000 0.000000 0.000000
-0.977202 0.001857 0.026666 1.000000 0.000000 0.000000
0.775456 0.017987 -0.321368 1.000000 0.000000 0.000000
0.662599 0.021906 -0.119650 0.500000 0.000000 0.500000
-0.162566 0.019232 -0.238604 1.000000 0.000000 0.000000
-0.728353 0.013079 -0.126928 0.600000 0.000000 0.300000
-0.297475 0.015916 0.023283 0.600000 0.000000 0.300000
-0.593701 -0.000562 0.198534 0.000000 0.000000 1.000000
-0.373683 0.019499 -0.244983 1.000000 0.000000 0.000000
0.315517 0.006795 0.058135 1.000000 0.000000 0.000000
-0.179792 -0.025293 0.205153 1.000000 0.000000 0.000000
0.473551 0.007894 -0.004244 1.000000 0.000000 0.000000
0.558979 0.003698 0.122199 0.000000 0.000000 1.000000
0.065529 0.018176 -0.325884 1.000000 0.000000 0.000000
0.790808 0.001536 0.180567 0.500000 0.000000 0.500000
-0.498100 0.008876 -0.026676 0.000000 0.000000 1.000000
0.638914 -0.011908 0.307972 1.000000 0.000000 0.000000
-0.284352 -0.022583 0.140483 1.000000 0.000000 0.000000
-0.842590 0.011284 -0.326414 1.000000 0.000000 0.000000
-0.080725 -0.002686 -0.003850 1.000000 0.000000 0.000000
0.009311 -0.013036 -0.087305 1.000000 0.000000 0.000000
-0.195734 -0.001042 -0.043075 1.000000 0.000000 0.000000
0.184078 -0.009266 -0.177248 1.000000 0.000000 0.000000
0.409883 -0.026635 0.237168 1.000000 0.000000 0.000000
0.151425 0.013847 0.061074 0.500000 0.500000 0.000000
0.917887 0.006281 -0.194025 1.000000 0.000000 0.000000
-0.483407 -0.023716 0.167510 1.000000 0.000000 0.000000
-0.129973 -0.010184 0.307067 1.000000 0.000000 0.000000
-0.385986 -0.014929 -0.042124 1.000000 0.000000 0.000000
0.749112 -0.014553 -0.051100 1.000000 0.000000 0.000000
-0.945850 -0.014974 0.305917 1.000000 0.000000 0.000000
-0.039505 0.018216 -0.214362 1.000000 0.000000 0.000000
-0.270924 -0.007557 -0.218030 1.000000 0.000000 0.000000
0.334261 0.009935 0.165978 0.600000 0.300000 0.000000
-0.822937 -0.025031 0.198883 1.000000 0.000000 0.000000
0.560870 -0.012656 -0.096362 1.000000 0.000000 0.000000
0.661740 -0.020189 0.083351 1.000000 0.000000 0.000000
0.403170 0.026160 -0.221118 0.000000 0.000000 1.000000
0.570665 -0.026039 0.222946 1.000000 0.000000 0.000000
-0.526401 0.024995 -0.193342 0.300000 0.000000 0.600000
0.858026 -0.018112 0.085240 1.000000 0.000000 0.000000
0.272094 0.017359 -0.114053 0.000000 0.500000 0.500000
0.740880 -0.031115 0.261971 1.000000 0.000000 0.000000
-0.730940 0.017272 -0.226967 0.000000 0.000000 1.000000
-0.585452 0.017948 -0.326135 1.000000 0.000000 0.000000
-0.201792 0.021134 -0.148184 1.000000 0.000000 0.000000
0.887148 0.012947 -0.088658 1.000000 0.000000 0.000000
0.750251 -0.007436 -0.220914 1.000000 0.000000 0.000000
0.245137 -0.026772 0.240432 1.000000 0.000000 0.000000
0.131747 -0.005904 -0.257468 1.000000 0.000000 0.000000
0.111126 -0.012208 -0.107058 1.000000 0.000000 0.000000
0.918340 -0.011183 0.264756 1.000000 0.000000 0.000000
0.450526 0.001472 -0.096040 1.000000 0.000000 0.000000
0.303163 0.014331 -0.326287 1.000000 0.000000 0.000000
0.840671 0.019465 -0.244174 1.000000 0.000000 0.000000
0.271170 -0.001875 -0.023217 1.000000 0.000000 0.000000
0.589251 -0.008971 -0.184285 1.000000 0.000000 0.000000
-0.424520 -0.011247 0.307999 1.000000 0.000000 0.000000
-0.635292 0.017644 -0.017950 1.000000 0.000000 0.000000
-0.772208 0.004408 0.079941 0.500000 0.500000 0.000000
0.485774 0.009164 0.184386 0.300000 0.600000 0.000000
-0.918713 0.026224 -0.222652 1.000000 0.000000 0.000000
-0.755129 -0.001815 0.258365 1.000000 0.000000 0.000000
0.825741 0.017619 -0.017363 0.600000 0.300000 0.000000
0.112331 -0.016166 -0.012627 1.000000 0.000000 0.000000
-0.043416 -0.006052 0.076457 1.000000 0.000000 0.000000
0.397732 -0.018098 0.033481 1.000000 0.000000 0.000000
-0.670423 -0.019644 0.070361 1.000000 0.000000 0.000000
0.012441 -0.000657 0.220722 0.000000 1.000000 0.000000
-0.949905 -0.014342 0.110644 1.000000 0.000000 0.000000
-0.167530 0.009716 -0.326159 1.000000 0.000000 0.000000
-0.974537 -0.001784 -0.061242 1.000000 0.000000 0.000000
-0.409576 0.018152 -0.325310 1.000000 0.000000 0.000000
-0.820677 -0.011707 -0.119010 1.000000 0.000000 0.000000
0.474008 -0.005748 -0.261175 1.000000 0.000000 0.000000
-0.295929 -0.000135 0.223474 1.000000 0.000000 0.000000
-0.505718 -0.018947 0.053736 1.000000 0.000000 0.000000
-0.366840 0.012530 -0.153126 1.000000 0.000000 0.000000
-0.082077 -0.026731 0.239455 1.000000 0.000000 0.000000
-0.827015 -0.017352 0.015666 1.000000 0.000000 0.000000
0.355416 0.018755 -0.149541 0.300000 0.600000 0.000000
-0.375440 -0.022513 0.138819 1.000000 0.000000 0.000000
0.168422 0.005078 0.214769 0.500000 0.000000 0.500000
0.030220 -0.006036 -0.254324 1.000000 0.000000 0.000000
-0.525849 0.019817 -0.108351 0.300000 0.000000 0.600000
0.696508 0.016639 0.006036 0.600000 0.000000 0.300000
0.687349 0.018182 -0.326038 1.000000 0.000000 0.000000
-0.656847 -0.009833 -0.163727 1.000000 0.000000 0.000000
0.230922 0.019348 -0.241382 1.000000 0.000000 0.000000
0.079472 -0.027887 0.267027 1.000000 0.000000 0.000000
0.033201 0.007670 0.114166 0.300000 0.600000 0.000000
-0.456591 -0.007265 -0.224990 1.000000 0.000000 0.000000
-0.887017 -0.001078 0.245980 1.000000 0.000000 0.000000
-0.781510 0.019172 -0.054408 0.500000 0.500000 0.000000
-0.671039 -0.012102 0.220812 1.000000 0.000000 0.000000
-0.338179 -0.023865 0.294206 1.000000 0.000000 0.000000
0.725186 -0.008393 0.132297 1.000000 0.000000 0.000000
0.238872 -0.019049 0.056158 1.000000 0.000000 0.000000
0.736911 -0.011203 -0.131034 1.000000 0.000000 0.000000
0.515774 -0.019127 0.058034 1.000000 0.000000 0.000000
-0.552290 -0.022050 0.127760 1.000000 0.000000 0.000000
-0.126553 -0.022449 0.137288 1.000000 0.000000 0.000000
-0.599429 -0.018628 0.304620 1.000000 0.000000 0.000000
-0.897933 0.015943 0.022641 0.500000 0.000000 0.500000
-0.895432 0.003370 -0.148356 1.000000 0.000000 0.000000
-0.639572 0.011216 0.135416 1.000000 0.000000 0.000000
-0.897615 -0.023721 0.167644 1.000000 0.000000 0.000000
-0.462124 -0.000780 0.238870 1.000000 0.000000 0.000000
-0.784784 -0.005080 -0.277119 1.000000 0.000000 0.000000
0.842670 -0.026249 0.229826 1.000000 0.000000 0.000000
-0.351011 -0.019402 0.064591 1.000000 0.000000 0.000000
-0.687264 -0.014049 -0.063131 1.000000 0.000000 0.000000
0.552281 -0.006229 -0.249697 1.000000 0.000000 0.000000
0.154467 -0.022467 0.137729 1.000000 0.000000 0.000000
-0.109083 0.024725 -0.186888 0.300000 0.600000 0.000000
-0.040889 0.022356 -0.130370 0.500000 0.500000 0.000000
0.609716 0.013268 -0.326331 1.000000 0.000000 0.000000
-0.096653 -0.005869 -0.258301 1.000000 0.000000 0.000000
-0.567692 -0.015290 -0.033512 1.000000 0.000000 0.000000
-0.335773 0.008121 -0.324054 1.000000 0.000000 0.000000
-0.215975 0.002281 0.130694 0.600000 0.300000 0.000000
0.429211 -0.009881 0.305303 1.000000 0.000000 0.000000
-0.655671 -0.004295 -0.295835 1.000000 0.000000 0.000000
-0.225622 0.006757 0.023885 0.800000 0.200000 0.500000
0.643900 -0.014183 -0.059946 1.000000 0.000000 0.000000
0.279954 -0.021551 0.115853 1.000000 0.000000 0.000000
0.337893 -0.026642 0.237329 1.000000 0.000000 0.000000
0.095449 -0.020540 0.091746 1.000000 0.000000 0.000000
-0.194937 -0.028488 0.281918 1.000000 0.000000 0.000000
-0.278704 -0.015070 -0.038774 1.000000 0.000000 0.000000
-0.438176 -0.017063 0.008778 1.000000 0.000000 0.000000
0.351654 0.015818 -0.269615 1.000000 0.000000 0.000000
0.009824 -0.009585 -0.169628 1.000000 0.000000 0.000000
-0.532712 -0.026519 0.234380 1.000000 0.000000 0.000000
0.821370 -0.013180 -0.083853 1.000000 0.000000 0.000000
-0.913155 0.008004 -0.323900 1.000000 0.000000 0.000000
0.181855 -0.016930 0.005601 1.000000 0.000000 0.000000
-0.014069 0.010023 -0.025542 0.300000 0.600000 0.000000
-0.149745 -0.003239 0.009333 1.000000 0.000000 0.000000
0.427880 -0.009947 -0.161002 1.000000 0.000000 0.000000
0.067100 0.012971 -0.056734 0.000000 0.500000 0.500000
0.540987 -0.016019 -0.016135 1.000000 0.000000 0.000000
-0.556218 0.020131 -0.260045 1.000000 0.000000 0.000000
0.673440 0.017099 -0.187691 1.000000 0.000000 0.000000
-0.071651 0.019768 -0.068605 0.600000 0.000000 0.300000
0.246276 -0.012958 0.307927 1.000000 0.000000 0.000000
0.572950 -0.007094 0.289087 1.000000 0.000000 0.000000
-0.578108 -0.009803 -0.164443 1.000000 0.000000 0.000000
-0.223759 -0.005192 -0.274458 1.000000 0.000000 0.000000
0.468011 0.018166 -0.326126 1.000000 0.000000 0.000000
0.133601 0.018079 -0.323564 1.000000 0.000000 0.000000
-0.109016 0.011955 0.079674 0.600000 0.000000 0.300000
0.413566 0.009386 0.179088 0.300000 0.000000 0.600000
0.795868 -0.007567 0.112595 1.000000 0.000000 0.000000
0.502478 -0.026838 0.242029 1.000000 0.000000 0.000000
0.852458 -0.009238 0.152457 1.000000 0.000000 0.000000
0.453707 0.006555 0.063846 1.000000 0.000000 0.000000
0.841899 0.000219 -0.308724 1.000000 0.000000 0.000000
-0.131728 -0.014208 -0.059347 1.000000 0.000000 0.000000
-0.448577 0.019853 -0.070637 0.800000 0.200000 0.500000
0.610113 0.009268 0.181907 0.000000 0.500000 0.500000
0.598372 -0.005678 0.067522 1.000000 0.000000 0.000000
0.399397 0.018055 -0.027746 0.600000 0.300000 0.000000
0.729416 0.008256 0.206032 0.500000 0.000000 0.500000
-0.267603 0.012185 0.082705 0.600000 0.300000 0.000000
-0.793942 -0.022426 0.136743 1.000000 0.000000 0.000000
0.361735 -0.020737 0.096429 1.000000 0.000000 0.000000
0.246298 0.013599 -0.174589 1.000000 0.000000 0.000000
0.001686 0.017493 -0.309578 1.000000 0.000000 0.000000
-0.478413 0.012337 0.108673 0.800000 0.200000 0.500000
0.333869 0.013128 -0.010475 0.300000 0.000000 0.600000
0.870193 -0.006416 -0.151041 1.000000 0.000000 0.000000
-0.371339 0.016350 0.012928 0.300000 0.000000 0.600000
-0.424477 0.009592 0.174173 1.000000 0.000000 0.000000
-0.356335 0.019571 -0.089459 0.800000 0.200000 0.500000
0.051609 0.021967 -0.121089 0.500000 0.000000 0.500000
0.201465 -0.011863 -0.115277 1.000000 0.000000 0.000000
0.813141 -0.018334 0.039112 1.000000 0.000000 0.000000
-0.305891 0.020489 -0.268608 1.000000 0.000000 0.000000
-0.917367 0.017851 -0.087673 0.000000 0.500000 0.500000
0.284484 -0.024653 0.189893 1.000000 0.000000 0.000000
-0.879570 -0.005334 -0.271062 1.000000 0.000000 0.000000
-0.332858 -0.008202 -0.202644 1.000000 0.000000 0.000000
0.633300 -0.027030 0.246591 1.000000 0.000000 0.000000
-0.774339 0.020391 -0.180891 0.000000 0.000000 1.000000
0.718535 0.020467 -0.268084 1.000000 0.000000 0.000000
-0.241486 0.009005 0.188177 1.000000 0.000000 0.000000
0.122853 -0.008603 -0.193064 1.000000 0.000000 0.000000
0.917887 -0.004941 0.098063 1.000000 0.000000 0.000000
-0.668953 0.025305 -0.223347 0.800000 0.200000 0.500000
-0.770745 0.008808 0.192876 0.600000 0.000000 0.300000
-0.977202 0.005802 -0.214969 1.000000 0.000000 0.000000
0.284195 -0.005456 -0.268162 1.000000 0.000000 0.000000
-0.124755 0.008883 0.191073 1.000000 0.000000 0.000000
-0.209805 -0.008210 -0.202455 1.000000 0.000000 0.000000
-0.156200 0.021255 -0.104105 1.000000 0.000000 0.000000
-0.656872 0.021239 -0.103718 0.300000 0.000000 0.600000
0.494322 -0.021546 0.115741 1.000000 0.000000 0.000000
-0.533511 0.009430 0.178042 1.000000 0.000000 0.000000
-0.244329 -0.027026 0.246485 1.000000 0.000000 0.000000
-0.263751 -0.010182 -0.155399 1.000000 0.000000 0.000000
0.694194 0.019514 -0.062567 0.600000 0.000000 0.300000
0.508831 0.012550 -0.114318 0.600000 0.000000 0.300000
0.651551 0.009527 0.137854 1.000000 0.000000 0.000000
0.684498 -0.003554 0.268489 1.000000 0.000000 0.000000
0.153759 0.022585 -0.135856 0.000000 0.500000 0.500000
-0.326277 0.009795 0.169314 1.000000 0.000000 0.000000
-0.540283 0.016238 0.015600 0.300000 0.000000 0.600000
0.198503 -0.007014 0.099413 1.000000 0.000000 0.000000
-0.069507 -0.016965 0.307246 1.000000 0.000000 0.000000
-0.240590 0.000797 -0.086948 1.000000 0.000000 0.000000
0.806646 -0.008244 -0.201628 1.000000 0.000000 0.000000
0.756398 -0.017033 0.008051 1.000000 0.000000 0.000000
-0.778447 0.016499 0.009379 0.000000 0.500000 0.500000
-0.912131 -0.014126 -0.026662 1.000000 0.000000 0.000000
0.796560 -0.001803 0.258293 1.000000 0.000000 0.000000
-0.400979 -0.008454 -0.196611 1.000000 0.000000 0.000000
-0.850699 0.010350 0.156081 0.300000 0.000000 0.600000
0.606348 0.020428 -0.267148 1.000000 0.000000 0.000000
0.501566 -0.014179 -0.060027 1.000000 0.000000 0.000000
0.374808 -0.025926 0.288994 1.000000 0.000000 0.000000
-0.330865 0.011334 -0.031071 0.300000 0.000000 0.600000
-0.328701 0.012327 0.108923 0.300000 0.000000 0.600000
0.874534 -0.010573 -0.036404 1.000000 0.000000 0.000000
0.587478 0.019204 -0.055153 0.300000 0.600000 0.000000
0.024221 -0.023754 0.168421 1.000000 0.000000 0.000000
0.107355 0.005401 0.214433 0.500000 0.500000 0.000000
0.595059 0.022258 -0.128036 0.000000 0.500000 0.500000
0.080740 0.019456 -0.269358 1.000000 0.000000 0.000000
-0.146228 -0.001079 0.245998 1.000000 0.000000 0.000000
0.391505 -0.011844 -0.115732 1.000000 0.000000 0.000000
0.648088 0.015241 0.039391 0.600000 0.000000 0.300000
0.544288 -0.023869 0.171165 1.000000 0.000000 0.000000
-0.428249 0.015838 -0.270090 1.000000 0.000000 0.000000
0.771525 0.020720 -0.091343 0.500000 0.500000 0.000000
0.864170 0.006598 0.027688 0.600000 0.300000 0.000000
0.911047 0.015033 -0.250876 1.000000 0.000000 0.000000
-0.952212 -0.019623 0.244852 1.000000 0.000000 0.000000
-0.621901 -0.017875 0.028147 1.000000 0.000000 0.000000
-0.714872 0.013267 0.086483 0.000000 1.000000 0.000000
-0.683977 0.015759 0.027038 0.300000 0.600000 0.000000
0.093317 0.014939 0.046596 0.500000 0.500000 0.000000
-0.154636 -0.010069 -0.158089 1.000000 0.000000 0.000000
-0.504052 -0.010336 -0.151705 1.000000 0.000000 0.000000
0.414525 -0.005270 -0.272578 1.000000 0.000000 0.000000
0.769892 -0.010415 0.308034 1.000000 0.000000 0.000000
-0.725943 -0.025385 0.207339 1.000000 0.000000 0.000000
-0.402719 -0.012280 -0.105336 1.000000 0.000000 0.000000
-0.635773 -0.002745 0.263774 1.000000 0.000000 0.000000
0.716460 -0.018694 0.047687 1.000000 0.000000 0.000000
0.326706 0.021130 -0.101110 0.300000 0.600000 0.000000
-0.804204 -0.029888 0.261520 1.000000 0.000000 0.000000
0.245206 -0.013706 -0.071320 1.000000 0.000000 0.000000
-0.068086 -0.009529 -0.170967 1.000000 0.000000 0.000000
-0.871506 -0.012681 -0.095765 1.000000 0.000000 0.000000
-0.501905 0.019417 -0.243014 1.000000 0.000000 0.000000
0.172543 0.017472 -0.227815 0.500000 0.500000 0.000000
0.359876 -0.008409 -0.197703 1.000000 0.000000 0.000000
0.199269 -0.028077 0.271582 1.000000 0.000000 0.000000
-0.027053 0.015705 0.028319 1.000000 0.000000 0.000000
0.608280 -0.021882 0.123751 1.000000 0.000000 0.000000
-0.041266 0.017157 -0.269454 1.000000 0.000000 0.000000
-0.494065 -0.013425 -0.078009 1.000000 0.000000 0.000000
0.132749 0.017013 -0.063856 0.000000 0.500000 0.500000
-0.012506 -0.021805 0.121935 1.000000 0.000000 0.000000
0.557002 0.005965 0.031581 1.000000 0.000000 0.000000
0.016496 0.025773 -0.211888 0.000000 0.500000 0.500000
0.033970 -0.015744 -0.022702 1.000000 0.000000 0.000000
0.375944 -0.023216 0.155588 1.000000 0.000000 0.000000
-0.539210 0.013243 0.087051 0.000000 0.000000 1.000000
-0.433131 -0.022202 0.131403 1.000000 0.000000 0.000000
-0.585042 -0.027075 0.247654 1.000000 0.000000 0.000000
0.780265 0.001547 -0.264837 0.000000 1.000000 0.000000
-0.581868 0.025487 -0.205067 0.600000 0.000000 0.300000
-0.889719 -0.023585 0.294914 1.000000 0.000000 0.000000
-0.700391 0.015983 -0.273538 1.000000 0.000000 0.000000
-0.748807 -0.013154 -0.084496 1.000000 0.000000 0.000000
-0.030449 -0.027537 0.258676 1.000000 0.000000 0.000000
0.457650 -0.008066 -0.205878 1.000000 0.000000 0.000000
-0.823047 -0.014100 -0.061916 1.000000 0.000000 0.000000
-0.772946 -0.012146 0.307961 1.000000 0.000000 0.000000
0.893648 0.000184 0.215871 1.000000 0.000000 0.000000
0.302107 -0.010204 -0.154878 1.000000 0.000000 0.000000
0.062258 -0.025760 0.216289 1.000000 0.000000 0.000000
-0.781906 0.015542 -0.326236 1.000000 0.000000 0.000000
0.268116 0.015298 0.027156 0.500000 0.500000 0.000000
-0.702054 0.016512 -0.173710 1.000000 0.000000 0.000000
-0.668184 -0.023780 0.169050 1.000000 0.000000 0.000000
0.455970 -0.000554 0.233475 1.000000 0.000000 0.000000
-0.934637 0.006725 0.059812 1.000000 0.000000 0.000000
0.023904 -0.027929 0.268033 1.000000 0.000000 0.000000
-0.112146 0.000263 -0.310844 1.000000 0.000000 0.000000
0.548788 -0.010510 -0.147573 1.000000 0.000000 0.000000
-0.415154 -0.027417 0.255819 1.000000 0.000000 0.000000
0.183648 -0.005158 -0.275271 1.000000 0.000000 0.000000
-0.782592 -0.007275 -0.224764 1.000000 0.000000 0.000000
0.006720 -0.019398 0.064496 1.000000 0.000000 0.000000
0.303505 -0.013773 -0.069728 1.000000 0.000000 0.000000
-0.037754 -0.025316 0.205707 1.000000 0.000000 0.000000
0.884964 -0.013034 0.305823 1.000000 0.000000 0.000000
-0.827040 -0.019555 0.068222 1.000000 0.000000 0.000000
0.864920 -0.004919 -0.205511 1.000000 0.000000 0.000000
0.140327 -0.026927 0.244136 1.000000 0.000000 0.000000
0.726504 0.016856 -0.181910 1.000000 0.000000 0.000000
0.716145 -0.017077 0.307070 1.000000 0.000000 0.000000
0.254143 0.017524 -0.310315 1.000000 0.000000 0.000000
0.620646 0.018313 -0.214879 0.300000 0.000000 0.600000
0.115264 0.010846 0.136485 0.000000 0.500000 0.500000
-0.534765 0.017815 -0.317265 1.000000 0.000000 0.000000
-0.926991 -0.000751 0.203038 0.300000 0.000000 0.600000
-0.883150 -0.008317 -0.199902 1.000000 0.000000 0.000000
-0.476561 0.021371 -0.181908 0.300000 0.000000 0.600000
0.397971 0.013367 0.084112 0.600000 0.000000 0.300000
0.223916 0.017752 -0.020528 0.500000 0.000000 0.500000
-0.837099 0.015888 -0.158815 1.000000 0.000000 0.000000
-0.292970 0.022632 -0.183217 0.300000 0.000000 0.600000
-0.461986 0.015022 0.044601 0.600000 0.300000 0.000000
-0.596468 -0.007338 0.107136 1.000000 0.000000 0.000000
-0.226841 -0.019689 0.071434 1.000000 0.000000 0.000000
0.214414 -0.011261 0.200738 1.000000 0.000000 0.000000
-0.564045 0.013742 -0.075009 0.000000 0.000000 1.000000
-0.716659 -0.034311 0.264699 1.000000 0.000000 0.000000
-0.718380 0.018270 -0.032881 0.000000 1.000000 0.000000
0.647213 -0.016300 -0.009434 1.000000 0.000000 0.000000
0.542388 0.017670 -0.201332 1.000000 0.000000 0.000000
0.212310 0.015652 0.029584 0.500000 0.500000 0.000000
0.071458 -0.007282 -0.224595 1.000000 0.000000 0.000000
0.528007 0.005271 0.212570 0.300000 0.600000 0.000000
-0.382768 -0.004606 -0.288421 1.000000 0.000000 0.000000
0.250325 0.012955 0.093935 0.000000 0.500000 0.500000
-0.090256 0.011502 0.128604 0.600000 0.000000 0.300000
-0.163529 0.011325 0.132805 0.300000 0.000000 0.600000
-0.637038 -0.014118 -0.061473 1.000000 0.000000 0.000000
0.295501 -0.001055 0.245435 1.000000 0.000000 0.000000
0.767447 -0.025731 0.215590 1.000000 0.000000 0.000000
-0.779326 0.016065 -0.124811 0.300000 0.600000 0.000000
0.142107 0.016389 0.012002 0.500000 0.500000 0.000000
0.624293 -0.012214 -0.106917 1.000000 0.000000 0.000000
0.474353 -0.010752 -0.141800 1.000000 0.000000 0.000000
-0.588626 0.015491 0.003380 0.600000 0.000000 0.300000
-0.620905 0.017130 -0.137878 0.300000 0.000000 0.600000
0.800757 -0.027403 -0.312387 0.000000 1.000000 0.000000
0.137197 -0.024592 0.188430 1.000000 0.000000 0.000000
0.438013 -0.014566 -0.050797 1.000000 0.000000 0.000000
0.372203 -0.011381 0.203600 1.000000 0.000000 0.000000
-0.313063 -0.010334 -0.151775 1.000000 0.000000 0.000000
-0.337755 -0.026217 0.227190 1.000000 0.000000 0.000000
0.449264 -0.024405 0.183950 1.000000 0.000000 0.000000
0.699886 -0.026229 0.227464 1.000000 0.000000 0.000000
-0.039678 -0.012808 -0.092746 1.000000 0.000000 0.000000
-0.928160 0.016158 -0.277722 1.000000 0.000000 0.000000
-0.335474 -0.017280 0.013972 1.000000 0.000000 0.000000
0.573521 -0.004369 -0.294071 1.000000 0.000000 0.000000
0.915802 0.010560 -0.144169 1.000000 0.000000 0.000000
-0.912431 0.011478 0.129163 0.500000 0.500000 0.000000
0.049210 -0.014369 0.307869 1.000000 0.000000 0.000000
-0.322942 -0.013537 -0.075338 1.000000 0.000000 0.000000
-0.467000 -0.028390 0.279040 1.000000 0.000000 0.000000
0.104240 -0.009872 0.305250 1.000000 0.000000 0.000000
-0.191832 -0.012272 -0.105525 1.000000 0.000000 0.000000
0.837811 0.008700 0.195458 0.500000 0.500000 0.000000
-0.668240 -0.016439 -0.006097 1.000000 0.000000 0.000000
-0.677896 -0.021779 0.121289 1.000000 0.000000 0.000000
0.688495 -0.010394 -0.150349 1.000000 0.000000 0.000000
0.320995 0.004513 0.112571 1.000000 0.000000 0.000000
-0.929085 -0.005097 -0.184005 1.000000 0.000000 0.000000
-0.727862 -0.018887 0.052288 1.000000 0.000000 0.000000
0.515892 0.015955 -0.272865 1.000000 0.000000 0.000000
0.094999 0.013838 -0.145051 0.500000 0.000000 0.500000
-0.876602 -0.018740 0.048787 1.000000 0.000000 0.000000
-0.299468 -0.019419 0.064998 1.000000 0.000000 0.000000
0.768764 -0.009493 -0.171828 1.000000 0.000000 0.000000
-0.119831 -0.018538 0.043967 1.000000 0.000000 0.000000
0.917887 0.004058 -0.051128 1.000000 0.000000 0.000000
-0.957943 -0.003755 -0.106302 1.000000 0.000000 0.000000
-0.620513 -0.023527 0.163003 1.000000 0.000000 0.000000
-0.864373 -0.000780 0.203721 0.300000 0.000000 0.600000
-0.818463 0.012761 -0.020578 0.500000 0.000000 0.500000
-0.147840 -0.005083 -0.277060 1.000000 0.000000 0.000000
-0.118202 0.018012 -0.026715 0.300000 0.000000 0.600000
-0.293988 -0.027688 0.262284 1.000000 0.000000 0.000000
-0.903746 -0.020340 0.094532 1.000000 0.000000 0.000000
0.905413 0.006981 0.053691 1.000000 0.000000 0.000000
0.792108 -0.015408 -0.030702 1.000000 0.000000 0.000000
-0.549866 -0.007518 -0.218960 1.000000 0.000000 0.000000
0.164313 -0.013107 -0.085601 1.000000 0.000000 0.000000
-0.203690 -0.000747 0.238077 1.000000 0.000000 0.000000
-0.073311 0.012250 0.040601 1.000000 0.000000 0.000000
-0.193532 0.009517 0.175967 1.000000 0.000000 0.000000
-0.833029 0.001611 -0.265078 0.500000 0.500000 0.000000
0.346413 -0.018041 0.032112 1.000000 0.000000 0.000000
0.349814 0.017885 -0.318946 1.000000 0.000000 0.000000
-0.617243 0.016121 -0.276833 1.000000 0.000000 0.000000
-0.084573 -0.024753 0.192261 1.000000 0.000000 0.000000
-0.429272 0.017810 -0.021912 0.800000 0.200000 0.500000
-0.494293 0.008334 0.204172 1.000000 0.000000 0.000000
0.634746 -0.011949 -0.295368 1.000000 0.000000 0.000000
-0.570602 0.022043 -0.122905 0.600000 0.300000 0.000000
-0.637626 0.013187 0.088406 1.000000 0.000000 0.000000
-0.558191 -0.018466 0.042244 1.000000 0.000000 0.000000
-0.459313 -0.015102 -0.037998 1.000000 0.000000 0.000000
-0.945966 -0.017030 0.160764 1.000000 0.000000 0.000000
-0.846222 -0.026739 0.239652 1.000000 0.000000 0.000000
-0.687455 -0.011797 -0.116871 1.000000 0.000000 0.000000
-0.394355 -0.018636 0.046310 1.000000 0.000000 0.000000
-0.435184 -0.025481 0.209634 1.000000 0.000000 0.000000
-0.382870 -0.006757 0.287123 1.000000 0.000000 0.000000
-0.403176 0.011865 0.119929 0.600000 0.000000 0.300000
0.541647 0.011770 -0.060563 1.000000 0.000000 0.000000
0.708055 -0.015487 -0.028817 1.000000 0.000000 0.000000
0.054580 -0.010143 -0.156316 1.000000 0.000000 0.000000
0.848989 0.019464 -0.061375 0.600000 0.300000 0.000000
-0.816776 0.012066 0.115135 0.500000 0.500000 0.000000
0.463589 -0.028422 0.279804 1.000000 0.000000 0.000000
-0.136440 -0.007848 -0.211080 1.000000 0.000000 0.000000
-0.933850 -0.012755 0.015665 1.000000 0.000000 0.000000
0.004657 0.013176 -0.129243 0.500000 0.500000 0.000000
0.393351 0.015945 -0.073753 0.600000 0.300000 0.000000
0.159791 -0.015043 -0.039420 1.000000 0.000000 0.000000
0.494949 0.017264 -0.226781 0.800000 0.200000 0.500000
0.693599 -0.012699 -0.288734 1.000000 0.000000 0.000000
-0.583284 0.008906 0.154405 0.000000 0.000000 1.000000
-0.481254 0.022261 -0.128119 0.300000 0.000000 0.600000
0.368365 -0.015760 -0.022320 1.000000 0.000000 0.000000
0.754382 -0.023599 0.164717 1.000000 0.000000 0.000000
-0.617393 0.004854 -0.183751 1.000000 0.000000 0.000000
0.731597 0.004132 -0.318645 1.000000 0.000000 0.000000
0.174652 0.010045 0.163371 0.500000 0.000000 0.500000
0.687604 -0.012427 -0.101834 1.000000 0.000000 0.000000
0.870436 -0.001263 -0.272658 1.000000 0.000000 0.000000
0.706241 0.010072 0.094659 1.000000 0.000000 0.000000
-0.627245 -0.026005 0.222124 1.000000 0.000000 0.000000
-0.740974 -0.009540 -0.170710 1.000000 0.000000 0.000000
-0.748075 -0.021281 0.109409 1.000000 0.000000 0.000000
-0.231939 -0.015897 -0.019043 1.000000 0.000000 0.000000
0.152351 0.012367 0.107948 0.000000 0.500000 0.500000
-0.163553 0.022314 -0.189771 0.300000 0.600000 0.000000
0.056183 0.007836 0.153795 0.500000 0.500000 0.000000
0.374067 -0.001264 0.250404 1.000000 0.000000 0.000000
-0.374518 0.009710 0.171354 1.000000 0.000000 0.000000
-0.218739 0.008189 -0.324144 1.000000 0.000000 0.000000
-0.237438 0.024716 -0.186674 0.600000 0.000000 0.300000
-0.464832 -0.019810 0.074323 1.000000 0.000000 0.000000
0.540357 -0.001503 0.256118 1.000000 0.000000 0.000000
0.756020 -0.020652 0.094408 1.000000 0.000000 0.000000
0.269512 0.007407 0.153551 0.500000 0.000000 0.500000
0.471669 0.019001 -0.050313 0.300000 0.000000 0.600000
-0.409186 0.022731 -0.139337 0.600000 0.000000 0.300000
0.431603 0.008654 0.013771 1.000000 0.000000 0.000000
-0.400115 0.018852 -0.072095 0.600000 0.000000 0.300000
0.425510 0.022252 -0.127896 0.600000 0.000000 0.300000
0.630582 0.003410 -0.149295 1.000000 0.000000 0.000000
0.219325 0.022723 -0.139151 0.000000 0.500000 0.500000
0.324939 0.022418 -0.182994 1.000000 0.000000 0.000000
-0.966352 0.009925 -0.016555 1.000000 0.000000 0.000000
0.643995 0.007834 0.211908 0.000000 0.500000 0.500000
-0.861260 -0.027514 -0.312515 0.500000 0.500000 0.000000
-0.050333 -0.015218 -0.035236 1.000000 0.000000 0.000000
0.394016 0.015191 -0.177332 0.000000 0.000000 1.000000
0.689777 0.010103 0.161976 0.000000 0.500000 0.500000
0.378161 -0.006655 -0.239552 1.000000 0.000000 0.000000
-0.766134 -0.015837 -0.020475 1.000000 0.000000 0.000000
-0.834331 0.020199 -0.090110 0.300000 0.600000 0.000000
-0.077609 -0.007583 -0.217401 1.000000 0.000000 0.000000
-0.180402 0.015355 0.036666 0.800000 0.200000 0.500000
0.254960 0.008630 0.197108 0.500000 0.000000 0.500000
-0.863639 -0.015808 -0.021162 1.000000 0.000000 0.000000
-0.739906 -0.005374 -0.270121 1.000000 0.000000 0.000000
-0.244251 0.022390 -0.131191 0.000000 0.000000 1.000000
-0.080126 -0.020843 0.098980 1.000000 0.000000 0.000000
0.874447 -0.002190 0.260544 1.000000 0.000000 0.000000
0.123717 -0.018663 0.046952 1.000000 0.000000 0.000000
-0.268869 -0.005676 -0.262909 1.000000 0.000000 0.000000
0.794753 -0.011666 -0.119998 1.000000 0.000000 0.000000
-0.452676 0.006324 -0.321682 1.000000 0.000000 0.000000
-0.087556 0.022900 -0.143367 0.000000 1.000000 0.000000
0.181416 -0.019064 0.056529 1.000000 0.000000 0.000000
0.268347 0.025333 -0.217608 0.000000 1.000000 0.000000
0.706176 -0.007752 -0.213365 1.000000 0.000000 0.000000
0.021536 0.019371 -0.059150 0.300000 0.600000 0.000000
-0.728841 -0.009280 0.301805 1.000000 0.000000 0.000000
0.315154 0.019467 -0.244216 1.000000 0.000000 0.000000
0.309117 -0.022967 0.149662 1.000000 0.000000 0.000000
0.723694 0.018423 -0.095872 0.500000 0.500000 0.000000
0.223813 -0.008016 -0.207081 1.000000 0.000000 0.000000
-0.543349 -0.004006 0.271118 1.000000 0.000000 0.000000
-0.279634 -0.024431 0.184572 1.000000 0.000000 0.000000
-0.599404 0.018735 -0.043963 1.000000 0.000000 0.000000
0.850457 0.021584 -0.111945 0.000000 1.000000 0.000000
-0.510148 -0.021487 0.114336 1.000000 0.000000 0.000000
-0.859728 0.018087 -0.228758 1.000000 0.000000 0.000000
-0.415696 0.015699 0.028473 0.600000 0.300000 0.000000
0.053970 -0.019905 0.076605 1.000000 0.000000 0.000000
0.128621 0.023243 -0.224446 0.500000 0.500000 0.000000
0.328386 0.007974 0.211762 0.600000 0.300000 0.000000
-0.003425 0.007429 0.153563 0.000000 1.000000 0.000000
-0.269444 -0.017811 0.026637 1.000000 0.000000 0.000000
-0.710079 0.017381 -0.087186 0.600000 0.000000 0.300000
-0.360591 0.025084 -0.195463 0.600000 0.300000 0.000000
0.285001 -0.028414 0.279621 1.000000 0.000000 0.000000
0.513963 -0.001100 0.149170 1.000000 0.000000 0.000000
0.505877 -0.017174 0.011418 1.000000 0.000000 0.000000
0.464250 0.003081 0.146736 1.000000 0.000000 0.000000
0.677642 -0.017762 0.025466 1.000000 0.000000 0.000000
-0.491532 -0.003467 0.014783 1.000000 0.000000 0.000000
-0.007742 -0.006944 -0.232648 1.000000 0.000000 0.000000
-0.501092 -0.002106 0.260059 1.000000 0.000000 0.000000
0.884235 0.003971 0.125519 1.000000 0.000000 0.000000
-0.442354 -0.009039 -0.182665 1.000000 0.000000 0.000000
0.399538 0.009594 0.137784 0.600000 0.000000 0.300000
-0.352520 -0.011680 -0.119647 1.000000 0.000000 0.000000
-0.771677 -0.025886 0.219287 1.000000 0.000000 0.000000
0.080429 0.013502 -0.010863 0.000000 0.500000 0.500000
-0.273596 0.019641 -0.065585 0.300000 0.000000 0.600000
-0.223847 0.019015 -0.233426 1.000000 0.000000 0.000000
-0.765135 0.010207 0.136104 0.500000 0.500000 0.000000
-0.376558 0.013308 0.085513 0.600000 0.000000 0.300000
-0.849442 0.015503 0.033140 0.500000 0.000000 0.500000
0.767034 0.022628 -0.136885 0.500000 0.500000 0.000000
0.553042 0.005905 0.079365 1.000000 0.000000 0.000000
0.684369 -0.021733 0.120210 1.000000 0.000000 0.000000
-0.779756 -0.018171 0.035213 1.000000 0.000000 0.000000
0.157413 0.024770 -0.187975 0.500000 0.500000 0.000000
0.083272 -0.017505 0.019322 1.000000 0.000000 0.000000
-0.312486 0.022812 -0.224769 0.300000 0.000000 0.600000
0.811576 -0.023009 0.150657 1.000000 0.000000 0.000000
-0.339828 -0.005661 -0.263257 1.000000 0.000000 0.000000
-0.871052 -0.022296 0.133642 1.000000 0.000000 0.000000
0.593983 -0.001224 0.249456 1.000000 0.000000 0.000000
0.281726 -0.018804 0.050312 1.000000 0.000000 0.000000
0.781058 0.016049 0.020119 0.300000 0.000000 0.600000
-0.186067 -0.022920 0.148523 1.000000 0.000000 0.000000
-0.192857 -0.017105 0.009778 1.000000 0.000000 0.000000
0.227577 -0.016882 0.004452 1.000000 0.000000 0.000000
-0.113534 -0.028087 0.271810 1.000000 0.000000 0.000000
-0.257752 0.011475 0.129227 0.600000 0.300000 0.000000
-0.756406 -0.023621 0.165241 1.000000 0.000000 0.000000
0.098957 -0.001320 -0.307651 1.000000 0.000000 0.000000
0.068199 -0.012892 -0.090745 1.000000 0.000000 0.000000
0.445796 0.019148 -0.236606 1.000000 0.000000 0.000000
-0.807224 0.013879 0.041565 0.500000 0.000000 0.500000
0.747086 0.017880 -0.023587 0.300000 0.000000 0.600000
-0.739766 0.015760 0.027010 0.000000 0.500000 0.500000
0.435402 0.024892 -0.190871 0.000000 0.000000 1.000000
-0.646131 0.011585 0.046826 0.300000 0.600000 0.000000
0.831195 0.010246 0.064812 0.600000 0.300000 0.000000
0.235434 -0.005139 -0.275722 1.000000 0.000000 0.000000
-0.226914 -0.023626 0.165367 1.000000 0.000000 0.000000
-0.129430 -0.025705 0.214975 1.000000 0.000000 0.000000
-0.561017 -0.023786 0.169188 1.000000 0.000000 0.000000
0.687342 0.014594 0.054825 0.600000 0.000000 0.300000
0.044664 -0.004250 -0.296930 1.000000 0.000000 0.000000
0.373107 0.008746 0.011584 1.000000 0.000000 0.000000
-0.972595 -0.007979 0.075768 1.000000 0.000000 0.000000
-0.673556 0.022893 -0.143210 0.300000 0.000000 0.600000
-0.677831 -0.002297 0.261166 1.000000 0.000000 0.000000
-0.946050 -0.000081 -0.243322 1.000000 0.000000 0.000000
0.231562 -0.021756 0.120751 1.000000 0.000000 0.000000
0.132714 -0.010357 -0.151212 1.000000 0.000000 0.000000
0.424566 -0.019977 0.078296 1.000000 0.000000 0.000000
0.624513 -0.017915 0.029108 1.000000 0.000000 0.000000
-0.111459 0.016156 0.017569 0.000000 0.000000 1.000000
-0.696936 -0.007088 -0.229218 1.000000 0.000000 0.000000
0.252778 -0.010778 -0.141168 1.000000 0.000000 0.000000
0.592394 -0.023502 0.162416 1.000000 0.000000 0.000000
0.329867 0.019057 -0.051653 0.300000 0.000000 0.600000
-0.608310 -0.015764 -0.022214 1.000000 0.000000 0.000000
-0.529360 -0.000641 -0.052646 1.000000 0.000000 0.000000
0.843707 0.011963 0.117598 0.500000 0.500000 0.000000
0.779392 0.021682 -0.214560 0.600000 0.000000 0.300000
-0.008504 0.012744 0.098968 0.300000 0.600000 0.000000
0.589807 -0.015355 -0.031980 1.000000 0.000000 0.000000
0.567991 0.009374 0.179371 0.000000 0.500000 0.500000
-0.790388 -0.010191 -0.155178 1.000000 0.000000 0.000000
0.715204 -0.024428 0.184513 1.000000 0.000000 0.000000
-0.181839 0.016578 -0.287747 1.000000 0.000000 0.000000
0.324099 -0.004329 -0.295042 1.000000 0.000000 0.000000
0.470753 -0.018170 0.035182 1.000000 0.000000 0.000000
-0.117282 0.019944 -0.089846 0.000000 1.000000 0.000000
0.444738 0.016749 -0.291836 1.000000 0.000000 0.000000
-0.654999 -0.006310 -0.247769 1.000000 0.000000 0.000000
0.352025 0.026081 -0.219246 1.000000 0.000000 0.000000
-0.417159 0.018884 -0.230303 1.000000 0.000000 0.000000
-0.694952 0.008752 0.194196 0.800000 0.200000 0.500000
-0.343290 -0.024454 0.185133 1.000000 0.000000 0.000000
-0.464881 -0.005481 -0.267564 1.000000 0.000000 0.000000
0.070369 -0.022106 0.129111 1.000000 0.000000 0.000000
-0.393906 -0.016831 0.003257 1.000000 0.000000 0.000000
-0.065380 -0.011397 -0.126408 1.000000 0.000000 0.000000
-0.637043 0.016411 -0.326199 1.000000 0.000000 0.000000
0.579702 0.018419 -0.219200 1.000000 0.000000 0.000000
0.490835 -0.004178 -0.298644 1.000000 0.000000 0.000000
-0.868796 0.022063 -0.123377 0.000000 0.500000 0.500000
0.331198 -0.003960 0.270848 1.000000 0.000000 0.000000
-0.031071 -0.010269 -0.153307 1.000000 0.000000 0.000000
0.685169 0.008069 0.210507 0.000000 0.500000 0.500000
0.733942 0.015726 0.027826 0.300000 0.000000 0.600000
0.053715 0.008684 0.195826 0.500000 0.500000 0.000000
0.207764 -0.015071 -0.038752 1.000000 0.000000 0.000000
-0.804145 0.000597 0.170872 0.600000 0.000000 0.300000
-0.294498 -0.004164 -0.298979 1.000000 0.000000 0.000000
0.615528 0.012719 0.099570 0.000000 0.000000 1.000000
-0.403224 -0.024303 0.181533 1.000000 0.000000 0.000000
-0.005430 -0.005216 -0.273887 1.000000 0.000000 0.000000
0.842287 0.016395 -0.170918 1.000000 0.000000 0.000000
-0.332740 -0.022812 0.145939 1.000000 0.000000 0.000000
-0.050352 0.011335 0.121046 0.600000 0.000000 0.300000
0.502911 -0.024997 0.198084 1.000000 0.000000 0.000000
-0.536207 0.015732 -0.155102 1.000000 0.000000 0.000000
0.874150 -0.019910 0.185000 1.000000 0.000000 0.000000
-0.095268 -0.013245 -0.082322 1.000000 0.000000 0.000000
-0.158656 0.017916 -0.024436 0.300000 0.000000 0.600000
0.493908 0.005638 0.085743 1.000000 0.000000 0.000000
0.038344 -0.008384 -0.198298 1.000000 0.000000 0.000000
0.808893 0.019252 -0.056333 0.600000 0.300000 0.000000
0.838882 -0.027043 0.271240 1.000000 0.000000 0.000000
0.840272 -0.016625 -0.001678 1.000000 0.000000 0.000000
-0.813762 0.016966 -0.297011 1.000000 0.000000 0.000000
0.174636 0.017681 -0.018825 0.500000 0.000000 0.500000
0.075088 0.012602 0.102346 0.000000 0.500000 0.500000
0.681481 0.018979 -0.232554 1.000000 0.000000 0.000000
-0.285796 0.017578 -0.016367 0.300000 0.000000 0.600000
-0.561221 -0.020393 0.088243 1.000000 0.000000 0.000000
-0.146372 0.010151 0.064911 0.000000 0.000000 1.000000
0.359954 0.003764 0.130452 1.000000 0.000000 0.000000
-0.494367 -0.008211 -0.202417 1.000000 0.000000 0.000000
0.326734 -0.024588 0.188333 1.000000 0.000000 0.000000
-0.031552 0.019847 -0.070494 0.600000 0.000000 0.300000
0.268738 0.018786 -0.070447 0.500000 0.000000 0.500000
0.416298 -0.008179 -0.203179 1.000000 0.000000 0.000000
-0.330757 -0.001792 0.258227 1.000000 0.000000 0.000000
0.619793 -0.025080 0.200058 1.000000 0.000000 0.000000
-0.155171 -0.009992 0.170451 1.000000 0.000000 0.000000
0.641571 -0.008911 -0.185726 1.000000 0.000000 0.000000
-0.569736 -0.004607 -0.288406 1.000000 0.000000 0.000000
-0.792324 0.000931 -0.090157 1.000000 0.000000 0.000000
0.661444 0.016537 -0.286779 1.000000 0.000000 0.000000
-0.897412 -0.014021 -0.063809 1.000000 0.000000 0.000000
0.531904 -0.020892 0.100129 1.000000 0.000000 0.000000
-0.441279 -0.012821 -0.092429 1.000000 0.000000 0.000000
0.662656 0.017864 -0.023204 0.600000 0.000000 0.300000
0.519661 0.017646 -0.018005 0.300000 0.000000 0.600000
0.361749 0.006746 0.059321 1.000000 0.000000 0.000000
0.833128 -0.010945 -0.137172 1.000000 0.000000 0.000000
-0.713802 -0.000663 0.236084 1.000000 0.000000 0.000000
-0.243756 -0.021374 0.111631 1.000000 0.000000 0.000000
-0.645036 -0.000257 0.191246 0.000000 0.000000 1.000000
-0.798974 0.019688 -0.249482 1.000000 0.000000 0.000000
-0.618376 -0.019901 0.076481 1.000000 0.000000 0.000000
-0.525445 -0.016170 -0.012533 1.000000 0.000000 0.000000
0.662592 -0.036373 0.272688 1.000000 0.000000 0.000000
0.004876 -0.016868 0.004124 1.000000 0.000000 0.000000
-0.169927 0.000234 -0.073520 1.000000 0.000000 0.000000
0.343558 -0.011379 -0.126830 1.000000 0.000000 0.000000
-0.034708 -0.003704 -0.302412 1.000000 0.000000 0.000000
-0.525582 0.009220 0.133722 0.000000 0.000000 1.000000
0.248765 -0.023661 0.166210 1.000000 0.000000 0.000000
0.194135 -0.022373 0.135479 1.000000 0.000000 0.000000
-0.453643 0.008447 0.201486 1.000000 0.000000 0.000000
0.205003 0.020812 -0.093527 0.000000 0.500000 0.500000
0.379231 -0.004538 -0.290060 1.000000 0.000000 0.000000
-0.443636 0.021778 -0.116583 0.600000 0.000000 0.300000
-0.328771 0.011752 0.055531 0.300000 0.000000 0.600000
0.800728 -0.025886 0.289094 1.000000 0.000000 0.000000
-0.219091 -0.025317 0.205722 1.000000 0.000000 0.000000
-0.682847 0.010344 0.156222 0.800000 0.200000 0.500000
0.053247 -0.001439 0.254577 1.000000 0.000000 0.000000
-0.924504 -0.003372 0.267427 1.000000 0.000000 0.000000
0.714889 -0.013749 -0.070281 1.000000 0.000000 0.000000
0.793678 -0.005928 0.073497 1.000000 0.000000 0.000000
0.165435 -0.002351 0.261484 1.000000 0.000000 0.000000
-0.517678 -0.005426 -0.268875 1.000000 0.000000 0.000000
-0.640409 -0.014546 0.307861 1.000000 0.000000 0.000000
-0.349119 -0.021039 0.103657 1.000000 0.000000 0.000000
0.153881 0.016677 -0.290119 1.000000 0.000000 0.000000
-0.680504 0.018144 -0.325120 1.000000 0.000000 0.000000
0.406494 -0.004153 0.271969 1.000000 0.000000 0.000000
-0.110206 0.017211 -0.225514 0.300000 0.600000 0.000000
0.119167 0.013410 0.083066 0.000000 0.500000 0.500000
-0.043969 -0.018346 0.039406 1.000000 0.000000 0.000000
0.210936 0.024674 -0.190124 0.000000 1.000000 0.000000
-0.551745 -0.011228 -0.130427 1.000000 0.000000 0.000000
-0.078348 -0.022688 0.142992 1.000000 0.000000 0.000000
-0.801390 -0.020782 0.097518 1.000000 0.000000 0.000000
-0.306889 -0.021253 0.108749 1.000000 0.000000 0.000000
-0.350110 0.008261 0.205922 1.000000 0.000000 0.000000
-0.278378 0.009918 0.166402 1.000000 0.000000 0.000000
-0.485531 -0.025929 0.220311 1.000000 0.000000 0.000000
-0.063616 -0.004000 0.271082 1.000000 0.000000 0.000000
-0.560708 -0.020405 0.301815 1.000000 0.000000 0.000000
0.702037 0.022541 -0.134786 0.500000 0.000000 0.500000
-0.829306 -0.023098 0.152776 1.000000 0.000000 0.000000
-0.238021 0.018989 -0.050027 0.600000 0.300000 0.000000
-0.172836 0.012941 0.094268 0.300000 0.000000 0.600000
0.830582 -0.014759 -0.046181 1.000000 0.000000 0.000000
-0.189766 -0.005975 -0.255776 1.000000 0.000000 0.000000
0.200094 -0.009980 0.305880 1.000000 0.000000 0.000000
0.818310 -0.005480 -0.267590 1.000000 0.000000 0.000000
-0.976348 -0.008898 0.273239 1.000000 0.000000 0.000000
-0.095928 0.003533 0.216372 0.000000 1.000000 0.000000
0.133988 0.009733 0.170810 0.500000 0.500000 0.000000
-0.133304 0.016235 -0.134874 0.000000 1.000000 0.000000
0.597646 -0.013644 -0.072805 1.000000 0.000000 0.000000
0.803819 0.003013 0.216912 0.500000 0.500000 0.000000
-0.016619 0.008634 0.197032 0.000000 1.000000 0.000000
-0.560975 0.001046 0.218954 0.000000 0.000000 1.000000
-0.679788 0.018289 -0.033345 0.000000 1.000000 0.000000
0.437831 0.017917 -0.024469 0.600000 0.300000 0.000000
-0.896545 0.010463 0.064587 0.500000 0.000000 0.500000
-0.897122 0.024672 -0.185636 1.000000 0.000000 0.000000
-0.286697 0.022060 -0.145193 0.000000 0.000000 1.000000
0.538806 -0.027609 0.284393 1.000000 0.000000 0.000000
-0.660634 -0.008059 -0.206044 1.000000 0.000000 0.000000
-0.734996 -0.014658 -0.048609 1.000000 0.000000 0.000000
-0.937062 -0.008843 -0.066262 1.000000 0.000000 0.000000
-0.401889 -0.020878 0.099794 1.000000 0.000000 0.000000
-0.219573 -0.009766 -0.165325 1.000000 0.000000 0.000000
-0.129256 -0.020247 0.084745 1.000000 0.000000 0.000000
0.299851 0.008951 0.006695 1.000000 0.000000 0.000000
-0.463689 0.005428 0.152422 1.000000 0.000000 0.000000
0.750135 -0.010839 -0.284874 1.000000 0.000000 0.000000
0.115964 -0.003712 0.269409 1.000000 0.000000 0.000000
-0.514886 -0.024622 0.189137 1.000000 0.000000 0.000000
-0.214179 0.013289 0.085970 0.600000 0.300000 0.000000
-0.426249 -0.014304 -0.057032 1.000000 0.000000 0.000000
0.097415 -0.013918 -0.066252 1.000000 0.000000 0.000000
0.780935 -0.013456 -0.077276 1.000000 0.000000 0.000000
-0.132627 0.012260 0.110521 0.300000 0.000000 0.600000
-0.975877 0.000211 0.134386 1.000000 0.000000 0.000000
-0.564272 -0.016893 0.004723 1.000000 0.000000 0.000000
-0.803540 0.017837 -0.205333 1.000000 0.000000 0.000000
-0.109602 -0.009550 -0.170482 1.000000 0.000000 0.000000
0.715118 -0.017051 0.008490 1.000000 0.000000 0.000000
-0.659249 0.024714 -0.186626 0.800000 0.200000 0.500000
-0.756311 -0.002600 -0.304849 1.000000 0.000000 0.000000
0.471437 0.021930 -0.120206 0.600000 0.000000 0.300000
0.623551 0.009085 -0.031638 0.300000 0.600000 0.000000
0.039288 -0.014007 -0.064124 1.000000 0.000000 0.000000
0.175939 -0.024219 0.179526 1.000000 0.000000 0.000000
-0.791016 -0.000870 0.241009 1.000000 0.000000 0.000000
0.296122 -0.011771 -0.117484 1.000000 0.000000 0.000000
-0.332066 0.022850 -0.142178 0.800000 0.200000 0.500000
0.586270 -0.018063 0.032642 1.000000 0.000000 0.000000
-0.542740 -0.012860 -0.091503 1.000000 0.000000 0.000000
-0.629261 -0.021700 0.119421 1.000000 0.000000 0.000000
-0.055119 -0.000592 0.234376 1.000000 0.000000 0.000000
-0.071765 -0.004676 -0.286761 1.000000 0.000000 0.000000
-0.404177 -0.010098 -0.157386 1.000000 0.000000 0.000000
-0.557091 0.017664 -0.018414 0.000000 0.000000 1.000000
0.605575 -0.006602 -0.240820 1.000000 0.000000 0.000000
-0.167066 -0.017013 0.307171 1.000000 0.000000 0.000000
0.187606 -0.026079 0.223906 1.000000 0.000000 0.000000
-0.726894 0.011725 0.123263 0.000000 1.000000 0.000000
-0.885337 0.015428 -0.012862 0.500000 0.000000 0.500000
0.421743 -0.023291 0.157370 1.000000 0.000000 0.000000
-0.858502 0.018527 -0.190502 1.000000 0.000000 0.000000
-0.667560 -0.018015 0.031484 1.000000 0.000000 0.000000
-0.358075 -0.027589 0.259916 1.000000 0.000000 0.000000
0.577775 0.020804 -0.093345 0.000000 0.500000 0.500000
0.642615 -0.023445 0.161046 1.000000 0.000000 0.000000
0.133368 0.014764 -0.024527 0.000000 0.500000 0.500000
0.773480 0.010694 0.136642 0.000000 1.000000 0.000000
-0.909596 0.018763 -0.044638 0.500000 0.000000 0.500000
0.140964 0.011989 -0.100930 0.000000 0.500000 0.500000
0.309839 0.022698 -0.138546 0.300000 0.600000 0.000000
0.466812 -0.020321 0.086510 1.000000 0.000000 0.000000
-0.838762 -0.021388 0.111974 1.000000 0.000000 0.000000
-0.224939 -0.007043 0.288790 1.000000 0.000000 0.000000
0.575707 0.015916 -0.159478 1.000000 0.000000 0.000000
-0.700923 -0.015674 -0.024358 1.000000 0.000000 0.000000
0.647017 0.009992 -0.326468 1.000000 0.000000 0.000000
0.717737 -0.001306 0.251424 1.000000 0.000000 0.000000
-0.932534 0.015646 -0.153038 1.000000 0.000000 0.000000
-0.193878 -0.021386 0.111935 1.000000 0.000000 0.000000
-0.071419 0.021333 -0.105961 0.000000 1.000000 0.000000
-0.884241 0.017177 -0.302044 1.000000 0.000000 0.000000
-0.638880 -0.012355 -0.103559 1.000000 0.000000 0.000000
0.437582 0.012343 0.108525 0.600000 0.000000 0.300000
-0.360062 -0.013701 -0.071432 1.000000 0.000000 0.000000
-0.016825 -0.008459 -0.196500 1.000000 0.000000 0.000000
0.228535 -0.002715 0.263605 1.000000 0.000000 0.000000
-0.232681 -0.011612 -0.121287 1.000000 0.000000 0.000000
0.511458 -0.010616 -0.145037 1.000000 0.000000 0.000000
0.224386 0.019397 -0.059765 0.500000 0.000000 0.500000
-0.373121 0.017844 -0.317956 1.000000 0.000000 0.000000
0.261379 -0.008289 -0.200561 1.000000 0.000000 0.000000
-0.200497 0.020511 -0.090434 1.000000 0.000000 0.000000
0.742812 0.012510 0.104538 0.000000 1.000000 0.000000
0.776050 -0.018372 0.040013 1.000000 0.000000 0.000000
-0.103844 -0.015244 -0.034616 1.000000 0.000000 0.000000
0.657833 0.011298 -0.084450 0.500000 0.000000 0.500000
-0.258174 0.014924 0.046962 0.600000 0.000000 0.300000
0.330701 -0.015268 -0.034038 1.000000 0.000000 0.000000
0.108355 0.024676 -0.185731 0.500000 0.000000 0.500000
-0.539637 -0.009054 -0.182299 1.000000 0.000000 0.000000
0.620421 0.015422 -0.074051 0.300000 0.600000 0.000000
-0.904464 -0.006566 -0.231783 1.000000 0.000000 0.000000
0.701608 -0.035201 0.276670 1.000000 0.000000 0.000000
-0.692056 -0.009446 -0.298959 1.000000 0.000000 0.000000
0.807796 0.021529 -0.110634 0.000000 1.000000 0.000000
-0.301953 -0.021215 0.300536 1.000000 0.000000 0.000000
-0.215391 0.017651 -0.018125 0.600000 0.300000 0.000000
-0.599967 -0.014156 -0.060578 1.000000 0.000000 0.000000
0.609730 -0.025500 0.290072 1.000000 0.000000 0.000000
-0.097809 0.000906 0.163489 0.000000 1.000000 0.000000
0.888875 0.016482 -0.172992 1.000000 0.000000 0.000000
0.739027 0.019445 -0.060904 0.300000 0.000000 0.600000
-0.518769 -0.023092 0.152627 1.000000 0.000000 0.000000
-0.762385 0.019531 -0.245740 1.000000 0.000000 0.000000
0.568306 0.008190 -0.010295 0.300000 0.600000 0.000000
0.443972 -0.016164 -0.012677 1.000000 0.000000 0.000000
-0.129547 0.020036 -0.257781 1.000000 0.000000 0.000000
0.824905 0.016089 0.019138 0.600000 0.300000 0.000000
-0.379340 0.013293 -0.118813 0.600000 0.000000 0.300000
-0.199982 0.024858 -0.190080 0.600000 0.000000 0.300000
-0.495669 -0.011822 -0.116256 1.000000 0.000000 0.000000
-0.285394 -0.013555 -0.074920 1.000000 0.000000 0.000000
-0.170907 -0.027247 0.251757 1.000000 0.000000 0.000000
-0.404317 -0.006062 -0.253681 1.000000 0.000000 0.000000
0.827822 0.021312 -0.203878 0.600000 0.000000 0.300000
0.119881 -0.021665 0.118594 1.000000 0.000000 0.000000
0.524513 -0.009198 -0.178860 1.000000 0.000000 0.000000
-0.082271 0.018314 -0.033942 0.600000 0.000000 0.300000
-0.627613 0.019829 -0.070066 1.000000 0.000000 0.000000
-0.158948 0.006802 0.212979 1.000000 0.000000 0.000000
-0.035706 -0.016607 -0.002102 1.000000 0.000000 0.000000
0.076387 -0.011374 -0.126962 1.000000 0.000000 0.000000
0.666094 -0.007741 -0.213627 1.000000 0.000000 0.000000
0.572281 -0.020660 0.094599 1.000000 0.000000 0.000000
-0.634132 0.024525 -0.212613 0.800000 0.200000 0.500000
-0.309175 -0.015881 -0.019407 1.000000 0.000000 0.000000
-0.442683 0.006805 0.112170 0.800000 0.200000 0.500000
0.276994 0.015677 -0.153781 1.000000 0.000000 0.000000
-0.461992 0.011045 -0.008313 0.800000 0.200000 0.500000
0.397750 -0.014399 -0.054778 1.000000 0.000000 0.000000
0.410169 0.003111 0.216810 0.300000 0.000000 0.600000
-0.713836 -0.008445 -0.196834 1.000000 0.000000 0.000000
0.240297 0.011870 -0.098110 0.000000 0.500000 0.500000
-0.890191 -0.017148 0.010805 1.000000 0.000000 0.000000
-0.253766 -0.011870 0.215268 1.000000 0.000000 0.000000
0.159093 -0.020699 0.095535 1.000000 0.000000 0.000000
-0.438028 -0.003887 0.270427 1.000000 0.000000 0.000000
-0.114375 -0.016852 0.003762 1.000000 0.000000 0.000000
0.342290 -0.006706 -0.238319 1.000000 0.000000 0.000000
0.052566 0.025966 -0.216504 0.500000 0.000000 0.500000
0.591523 0.011220 0.135313 0.000000 0.000000 1.000000
0.168318 0.005897 -0.321118 1.000000 0.000000 0.000000
0.828850 -0.021292 0.109679 1.000000 0.000000 0.000000
-0.162898 -0.015023 -0.039889 1.000000 0.000000 0.000000
0.741877 0.009948 0.165682 0.500000 0.000000 0.500000
0.876493 -0.014081 0.054269 1.000000 0.000000 0.000000
0.795325 -0.017035 0.008112 1.000000 0.000000 0.000000
-0.684178 0.010093 0.104589 0.000000 1.000000 0.000000
0.499041 -0.003651 0.269049 1.000000 0.000000 0.000000
0.295440 -0.020202 0.083667 1.000000 0.000000 0.000000
0.203088 0.011202 0.063820 0.500000 0.500000 0.000000
-0.891193 0.010243 0.158642 0.300000 0.000000 0.600000
-0.513944 0.015714 0.056220 0.300000 0.000000 0.600000
0.491441 0.007129 0.050172 1.000000 0.000000 0.000000
-0.928171 -0.007684 -0.125545 1.000000 0.000000 0.000000
