ply
format ascii 1.0
element vertex 1296
property float x
property float y
property float z
property uchar red
property uchar green
property uchar blue
end_header
0.912531 -0.013844 0.211549 255 0 0
0.492077 -0.020247 0.084763 255 0 0
0.405119 0.008940 -0.325136 255 0 0
0.917887 0.010187 -0.201597 255 0 0
0.179721 -0.000597 -0.053710 255 0 0
-0.940096 0.002326 0.164753 255 0 0
0.250847 -0.001195 -0.039429 255 0 0
0.910960 0.018722 -0.226438 255 0 0
-0.832830 -0.000328 -0.060121 255 0 0
-0.515855 0.004632 -0.178469 255 0 0
-0.057225 0.017597 -0.199592 255 0 0
0.342769 0.002017 -0.314380 255 0 0
-0.438136 0.000311 -0.075362 255 0 0
0.006810 -0.006167 0.079197 255 0 0
-0.467116 0.020418 -0.096826 76 0 153
-0.222281 -0.002521 0.262474 255 0 0
-0.949647 -0.017233 0.178700 255 0 0
0.611581 0.018312 -0.216643 255 0 0
0.817316 -0.013690 -0.071695 255 0 0
0.055179 -0.001023 0.244660 255 0 0
-0.451008 -0.007204 0.103934 255 0 0
0.433027 -0.017415 0.017175 255 0 0
0.478903 -0.006737 -0.237595 255 0 0
0.834772 -0.011673 0.210563 255 0 0
0.205161 -0.000163 -0.064059 255 0 0
0.039653 0.016664 -0.289799 255 0 0
0.799986 -0.002527 -0.007653 153 76 0
-0.693932 0.012878 0.095774 0 255 0
0.815463 0.018526 -0.221749 255 0 0
0.320508 0.004914 -0.185186 255 0 0
-0.158580 -0.006064 0.076734 255 0 0
-0.949436 0.013553 -0.103102 255 0 0
0.162020 -0.012048 0.219513 127 0 127
-0.513254 0.006184 -0.215483 255 0 0
0.700293 -0.004725 0.044786 255 0 0
-0.046889 -0.008069 0.124567 255 0 0
0.584679 -0.017778 0.025833 255 0 0
-0.793280 -0.013811 -0.068818 255 0 0
0.888846 -0.006420 0.285165 255 0 0
-0.766223 0.000873 -0.088768 255 0 0
0.557002 -0.000838 0.113188 255 0 0
0.474286 -0.016582 -0.002682 255 0 0
-0.674021 -0.010685 0.186998 204 51 127
0.418939 0.009701 0.171559 76 0 153
0.462363 0.004668 -0.179312 255 0 0
0.212328 -0.016948 0.006041 255 0 0
0.820148 -0.008610 -0.192894 255 0 0
-0.918430 -0.021299 0.164785 255 0 0
-0.970744 0.016765 -0.292210 255 0 0
-0.107733 -0.005452 0.062131 255 0 0
0.035062 0.008249 -0.011705 76 153 0
-0.484365 0.016024 -0.274536 255 0 0
0.780453 0.009127 0.185262 127 0 127
0.860548 -0.011043 0.195542 255 0 0
-0.213980 -0.009760 -0.165456 255 0 0
-0.923989 0.003525 0.101008 127 127 0
-0.913529 -0.000465 -0.056840 255 0 0
0.869270 0.008909 0.028124 153 76 0
-0.879478 -0.015041 -0.039464 255 0 0
0.604329 0.015844 0.024987 204 51 127
-0.015427 0.016018 0.020844 255 0 0
0.293805 -0.010476 -0.148372 255 0 0
-0.043183 0.017646 -0.087461 127 127 0
-0.060758 0.000815 -0.311957 255 0 0
-0.703754 -0.001533 -0.031365 255 0 0
-0.636595 -0.005858 0.071815 255 0 0
0.451957 -0.027733 0.263365 255 0 0
-0.414529 0.006100 0.039560 153 76 0
-0.558696 -0.005175 -0.274848 255 0 0
0.763829 -0.006422 -0.245100 0 255 0
0.882739 -0.021331 0.248604 255 0 0
0.024747 -0.009929 0.168951 255 0 0
0.412439 -0.024776 0.192819 255 0 0
0.288043 -0.004598 0.274558 255 0 0
-0.474024 0.004592 -0.177502 255 0 0
-0.428025 0.008611 0.134007 153 0 76
-0.314960 0.002156 -0.119395 255 0 0
0.856212 -0.005706 -0.216629 255 0 0
-0.200096 0.025407 -0.203160 153 0 76
-0.636665 0.003178 -0.143759 255 0 0
-0.855506 -0.007077 0.100897 127 127 0
0.456036 -0.001368 0.114106 255 0 0
-0.783943 -0.021420 0.112728 255 0 0
-0.683765 -0.001904 0.258884 255 0 0
0.306695 -0.016784 0.002132 255 0 0
0.415859 -0.004827 -0.283166 255 0 0
-0.977202 -0.009231 0.162911 255 0 0
-0.529928 -0.016902 0.004954 255 0 0
-0.205675 -0.006162 -0.251308 255 0 0
-0.451443 0.006260 -0.153389 255 0 0
-0.637761 -0.011415 0.204418 255 0 0
-0.803416 -0.008416 -0.197528 255 0 0
-0.393166 0.004364 0.080999 153 0 76
0.384776 -0.028275 0.276286 255 0 0
0.717823 0.009803 -0.198187 255 0 0
0.848176 0.021950 -0.120696 0 255 0
-0.537390 0.011915 0.118747 0 0 255
-0.379660 0.015881 -0.271109 255 0 0
-0.527938 0.015535 0.032365 76 0 153
0.817091 -0.016373 -0.007676 255 0 0
-0.427468 -0.007461 -0.220308 255 0 0
0.764203 0.016631 -0.289005 255 0 0
-0.298720 0.008517 0.199823 255 0 0
0.094007 0.025281 -0.200155 127 0 127
-0.074606 -0.011958 0.217354 255 0 0
0.092619 0.018311 -0.033868 0 127 127
-0.668598 0.006629 0.026951 76 153 0
0.335315 0.010092 0.162239 153 76 0
-0.822077 -0.017967 0.030354 255 0 0
0.217681 -0.011807 0.213756 127 0 127
-0.580615 0.017479 -0.309242 255 0 0
0.121522 -0.001621 -0.029260 255 0 0
-0.828798 -0.020819 0.098409 255 0 0
-0.637596 -0.009427 0.156973 255 0 0
0.008086 -0.017992 0.030940 255 0 0
0.090135 0.006499 -0.222996 255 0 0
0.345968 0.004753 0.106845 255 0 0
-0.132647 -0.000540 -0.055060 255 0 0
0.420684 0.010987 -0.008253 153 76 0
-0.684131 -0.026741 0.239690 255 0 0
-0.884696 -0.007779 0.117665 255 0 0
0.681853 -0.024467 0.185431 255 0 0
0.814211 -0.009483 0.158308 127 127 0
-0.606993 0.013150 0.084669 255 0 0
-0.351189 0.005446 0.142017 76 0 153
0.113658 -0.006011 -0.254910 255 0 0
-0.856056 0.016379 -0.195860 255 0 0
0.118719 0.001714 -0.108829 255 0 0
0.066547 -0.022932 0.148823 255 0 0
-0.631577 0.008070 0.210481 0 0 255
0.799934 -0.007554 0.112283 255 0 0
0.744330 -0.006185 0.079630 255 0 0
-0.366213 0.000049 -0.069105 255 0 0
-0.254407 0.017310 -0.305205 255 0 0
-0.612221 0.024758 -0.187687 153 0 76
0.697839 -0.015649 -0.024950 255 0 0
0.703997 0.017659 -0.313533 255 0 0
0.728679 0.006781 -0.215770 255 0 0
-0.869645 0.019877 -0.253994 255 0 0
-0.204334 0.003255 -0.145603 255 0 0
-0.587983 -0.014005 -0.064177 255 0 0
-0.017917 -0.009513 -0.171347 255 0 0
0.443271 -0.006373 0.084102 255 0 0
0.443300 -0.008851 0.143237 255 0 0
-0.200063 0.014936 0.046664 204 51 127
-0.337313 -0.013983 -0.064709 255 0 0
-0.263347 0.013188 0.088373 153 76 0
0.206782 -0.010495 0.182456 255 0 0
0.478983 0.007949 -0.153319 255 0 0
-0.565127 -0.028397 0.279194 255 0 0
-0.738894 -0.024052 0.175533 255 0 0
0.000243 0.013856 -0.174578 255 0 0
0.504027 -0.024767 0.192604 255 0 0
-0.945245 0.005412 -0.310714 255 0 0
0.725200 0.015667 -0.153550 255 0 0
-0.538589 0.020347 -0.265200 255 0 0
0.189827 0.020902 -0.095690 0 127 127
0.722220 0.001240 -0.097526 255 0 0
0.183746 0.022832 -0.141725 0 127 127
0.388809 0.013925 -0.147123 153 0 76
0.531987 0.003176 -0.136686 255 0 0
-0.166349 0.011364 0.131888 76 0 153
0.559220 -0.001404 0.253758 255 0 0
0.313979 0.001964 -0.107768 255 0 0
0.640807 0.003100 0.111159 255 0 0
-0.754211 0.002001 -0.115679 255 0 0
0.075287 -0.008461 -0.196451 255 0 0
-0.485398 -0.025676 0.214289 255 0 0
0.913014 0.015472 -0.302249 255 0 0
-0.074095 -0.000681 0.236502 255 0 0
0.073671 -0.002302 -0.013014 255 0 0
0.441325 -0.011222 0.199793 255 0 0
-0.394101 -0.006777 -0.236621 255 0 0
0.114475 -0.006163 0.079092 255 0 0
-0.616858 0.006018 -0.211530 255 0 0
0.650093 -0.010148 -0.156205 255 0 0
-0.138576 0.026199 -0.222062 76 153 0
0.024697 -0.027492 0.284721 255 0 0
0.562358 -0.008083 0.294840 255 0 0
-0.106844 0.015436 0.034720 0 0 255
0.257671 -0.018960 0.054039 255 0 0
0.043410 0.004729 0.101038 0 127 127
-0.450294 0.020487 -0.268551 255 0 0
0.501115 -0.026707 0.238880 255 0 0
0.618090 0.009906 0.166669 0 127 127
-0.174245 -0.019638 0.070232 255 0 0
0.086499 -0.008440 0.133421 255 0 0
-0.329647 -0.019984 0.078482 255 0 0
-0.371267 0.013327 -0.132871 204 51 127
0.188008 -0.001746 -0.026281 255 0 0
0.142474 -0.009693 0.163325 255 0 0
-0.365913 0.016008 0.021080 76 0 153
-0.401362 -0.001652 -0.028520 255 0 0
-0.302410 -0.006219 0.080424 255 0 0
-0.847233 -0.001199 0.248857 255 0 0
0.350550 -0.001843 -0.016940 255 0 0
-0.502472 0.016279 -0.168151 255 0 0
-0.683242 -0.005613 0.280468 255 0 0
0.187608 0.010156 0.160702 127 0 127
-0.536374 0.016650 -0.289472 255 0 0
0.756635 -0.016493 0.307779 255 0 0
0.686643 -0.007014 0.288619 255 0 0
0.888646 0.014889 -0.134993 255 0 0
0.433540 0.001044 -0.085828 255 0 0
-0.283863 0.017759 -0.020694 76 0 153
0.326621 -0.009088 0.148891 255 0 0
0.383982 -0.001204 -0.032182 255 0 0
0.487614 0.002407 -0.118351 255 0 0
-0.382691 -0.024405 0.183951 255 0 0
0.397947 0.004552 -0.176553 255 0 0
-0.774185 -0.005456 0.062236 255 0 0
0.018383 -0.011591 -0.121784 255 0 0
-0.421784 0.009375 -0.038563 204 51 127
0.162410 0.009001 0.188266 127 0 127
0.192578 0.015411 0.035317 127 127 0
0.462700 -0.000486 -0.049313 255 0 0
-0.478095 0.012401 0.107150 204 51 127
-0.234008 0.011277 0.133968 153 76 0
0.801419 -0.000800 0.239353 255 0 0
-0.785568 0.003036 -0.140371 255 0 0
-0.694560 -0.028405 0.261066 255 0 0
-0.341535 -0.004793 0.046405 255 0 0
-0.241290 -0.024248 0.180208 255 0 0
-0.873034 -0.020176 0.083068 255 0 0
0.003662 0.001687 -0.108206 255 0 0
-0.854064 -0.025510 0.210334 255 0 0
0.298976 -0.005007 -0.278859 255 0 0
0.604956 -0.008878 -0.186493 255 0 0
-0.861165 -0.007929 -0.288830 127 127 0
-0.217116 -0.006990 -0.231539 255 0 0
-0.193202 -0.006300 0.082379 255 0 0
-0.087032 0.006732 -0.322220 255 0 0
0.563933 0.012008 -0.198095 255 0 0
0.828772 0.005116 0.063056 153 76 0
0.423177 -0.009123 0.149729 255 0 0
0.821434 -0.002389 -0.304416 255 0 0
0.565914 -0.009564 0.160239 255 0 0
-0.310838 0.016285 -0.280761 255 0 0
0.512954 -0.011658 0.210217 255 0 0
0.580601 0.015424 0.035014 204 51 127
0.631317 -0.007881 -0.210286 255 0 0
-0.608188 0.019823 -0.069943 255 0 0
0.670556 0.015394 0.054994 153 0 76
0.013905 -0.004773 -0.284454 255 0 0
0.644410 -0.006814 -0.235747 255 0 0
-0.920119 0.015909 0.023436 127 0 127
0.124495 0.016757 -0.292029 255 0 0
0.394381 -0.010071 0.172342 255 0 0
0.242505 0.021351 -0.106402 0 127 127
-0.683557 0.017181 -0.302131 255 0 0
0.719232 0.002021 0.192237 127 0 127
0.898344 -0.010045 0.042194 255 0 0
0.664538 -0.011217 0.199678 255 0 0
0.909238 -0.001131 -0.110044 255 0 0
0.063409 0.019663 -0.248883 255 0 0
-0.572848 0.012647 0.101278 0 0 255
-0.964827 -0.009679 0.073244 255 0 0
-0.808979 -0.012095 -0.109748 255 0 0
-0.056271 0.002948 -0.138273 255 0 0
-0.564484 0.016300 -0.168652 255 0 0
-0.361173 -0.015412 -0.030617 255 0 0
0.832146 0.001212 0.156204 127 127 0
-0.542600 -0.007000 0.099066 255 0 0
-0.740693 -0.019118 0.057825 255 0 0
-0.847454 -0.018758 0.049224 255 0 0
-0.040227 -0.008958 0.145790 255 0 0
-0.275568 0.015033 0.044338 153 0 76
-0.741176 0.016302 -0.054406 127 127 0
-0.686379 0.019269 -0.131722 76 0 153
-0.159921 -0.008206 0.127853 255 0 0
-0.558659 -0.003749 0.021510 255 0 0
-0.030996 0.006448 -0.221793 255 0 0
-0.720750 0.016444 -0.284557 255 0 0
-0.383398 -0.012070 0.220038 255 0 0
-0.863953 0.000149 -0.071500 255 0 0
-0.873462 0.012917 0.094826 127 127 0
-0.363156 0.017442 -0.308371 255 0 0
-0.503671 0.016572 0.007636 76 0 153
-0.834821 -0.003384 0.012789 255 0 0
0.486211 -0.001499 -0.307281 255 0 0
0.492424 0.009475 0.176962 76 153 0
0.782654 0.022463 -0.132930 127 127 0
-0.503303 -0.005044 -0.277978 255 0 0
-0.936311 -0.009964 0.305785 255 0 0
0.707304 0.009653 0.080044 255 0 0
-0.479870 -0.003923 0.025658 255 0 0
0.001725 -0.001294 -0.037065 255 0 0
-0.953427 -0.003770 -0.129066 255 0 0
0.172202 0.016168 -0.165502 255 0 0
0.168606 0.003056 -0.140868 255 0 0
-0.574278 0.001795 0.142286 0 0 255
-0.907696 -0.017600 0.041899 255 0 0
-0.626877 0.015956 0.016361 153 0 76
-0.742373 0.020749 -0.092035 153 0 76
0.501127 0.017340 -0.305930 255 0 0
0.285480 -0.023423 0.160519 255 0 0
-0.548510 -0.006179 0.283760 255 0 0
0.876799 0.017842 -0.317903 255 0 0
0.815977 -0.010683 0.186936 255 0 0
-0.694063 0.001885 0.140141 0 255 0
0.664337 -0.006344 -0.246964 255 0 0
-0.890191 0.021738 -0.115642 0 127 127
-0.954057 -0.006567 -0.060107 255 0 0
0.715121 0.016012 -0.274249 255 0 0
-0.733916 0.006394 -0.220490 255 0 0
0.299437 0.007292 -0.226883 255 0 0
0.916632 -0.007940 0.093452 255 0 0
0.783279 -0.001680 -0.306881 255 0 0
-0.648234 0.012708 0.099831 255 0 0
-0.055229 -0.001542 -0.031145 255 0 0
-0.045286 0.009479 0.176865 0 255 0
-0.366959 -0.008215 -0.202334 255 0 0
-0.093408 -0.003361 0.267362 255 0 0
0.119987 -0.026537 0.234817 255 0 0
-0.203472 0.010378 0.155400 255 0 0
-0.262758 0.018906 -0.230820 255 0 0
0.513673 0.016342 -0.169648 255 0 0
-0.284591 0.002614 -0.130315 255 0 0
-0.186433 -0.025605 0.289806 255 0 0
-0.527046 -0.022165 0.130514 255 0 0
0.003458 0.009360 0.179698 0 255 0
-0.540596 0.005975 -0.210504 255 0 0
-0.011078 0.005235 -0.192842 255 0 0
-0.212973 -0.016554 -0.003359 255 0 0
0.585605 -0.019680 0.071215 255 0 0
-0.816796 -0.007846 0.293458 255 0 0
-0.302212 -0.007117 -0.228512 255 0 0
-0.147174 0.001068 -0.093434 255 0 0
0.872556 0.007084 -0.073550 255 0 0
0.047996 0.010495 -0.065282 76 153 0
-0.827487 0.016228 -0.166934 255 0 0
-0.804848 0.013546 0.079831 127 127 0
0.469669 0.008700 0.012691 255 0 0
-0.839440 0.022148 -0.125406 76 153 0
0.434035 -0.008402 0.296696 255 0 0
0.071300 -0.006558 0.285965 255 0 0
-0.651207 -0.014672 -0.048265 255 0 0
-0.168273 0.015681 -0.050637 76 0 153
0.444539 0.021605 -0.112461 153 0 76
0.376665 0.009024 -0.325246 255 0 0
-0.898696 -0.002590 -0.296434 255 0 0
-0.320752 0.012843 -0.228978 255 0 0
-0.665029 0.017808 -0.326141 255 0 0
-0.083572 0.002505 -0.127706 255 0 0
-0.259405 -0.008003 0.123006 255 0 0
-0.488273 -0.014641 0.307857 255 0 0
0.016816 -0.017178 0.011529 255 0 0
0.117780 0.022766 -0.140151 0 127 127
-0.527862 0.001901 -0.113311 255 0 0
0.108853 -0.007535 -0.218545 255 0 0
-0.645196 0.005925 -0.209304 255 0 0
0.025568 -0.004842 0.047579 255 0 0
0.442541 -0.001389 -0.307511 255 0 0
-0.405662 -0.023373 0.159339 255 0 0
0.796278 -0.000069 -0.066300 255 0 0
-0.477063 0.022579 -0.135694 76 0 153
-0.164199 0.008244 0.009277 204 51 127
-0.517653 -0.023078 0.152304 255 0 0
0.170810 0.006180 -0.215399 255 0 0
-0.602316 -0.005547 -0.265968 255 0 0
-0.737194 -0.003438 0.014079 255 0 0
-0.265898 -0.003748 0.021480 255 0 0
-0.465451 -0.015251 -0.034441 255 0 0
0.469514 -0.011690 -0.119409 255 0 0
0.730332 0.011146 -0.080833 76 0 153
0.128785 -0.006957 0.098038 255 0 0
0.618179 0.022921 -0.143847 0 127 127
-0.011187 0.009478 -0.325845 255 0 0
-0.849733 -0.016654 -0.000964 255 0 0
0.576335 -0.005707 -0.262172 255 0 0
-0.486582 -0.006222 -0.249869 255 0 0
0.440948 0.019211 -0.238100 255 0 0
-0.422924 0.000883 -0.089007 255 0 0
0.561555 -0.000137 -0.064674 255 0 0
0.495139 -0.002116 -0.010437 255 0 0
-0.859027 0.004768 -0.153452 255 0 0
-0.976429 -0.002402 0.183553 255 0 0
-0.895953 -0.010858 -0.139254 255 0 0
-0.854292 0.011640 0.125300 127 127 0
-0.866910 0.010186 0.159991 76 0 153
0.475873 -0.026475 0.233344 255 0 0
0.330851 -0.006488 -0.243535 255 0 0
0.033045 0.019525 -0.245605 255 0 0
-0.133579 0.001910 0.139549 76 0 153
0.834121 -0.001828 -0.024342 255 0 0
-0.959795 0.000107 0.217697 255 0 0
0.103370 -0.003190 0.008173 255 0 0
-0.958416 0.004769 0.106466 255 0 0
-0.202856 -0.000363 0.193778 255 0 0
0.084946 0.017296 -0.304885 255 0 0
0.891293 0.016946 -0.296532 255 0 0
0.220112 0.002884 -0.136750 255 0 0
0.025344 0.015933 0.022883 0 255 0
0.205606 0.008923 0.190125 127 0 127
0.480665 0.005533 0.088248 255 0 0
-0.461164 -0.013565 -0.074668 255 0 0
0.560293 0.012015 -0.101548 0 127 127
-0.642265 0.008290 0.036012 76 153 0
0.522065 0.007304 0.045988 255 0 0
0.771246 -0.019402 0.064590 255 0 0
-0.017943 -0.013148 -0.084636 255 0 0
0.499350 0.022990 -0.145502 153 0 76
0.557223 -0.004855 0.047890 204 51 127
-0.723434 -0.022397 0.136047 255 0 0
-0.039720 0.014782 0.050326 255 0 0
-0.929692 -0.012413 -0.007303 255 0 0
-0.889478 0.020834 -0.094054 0 127 127
-0.911926 -0.001301 -0.036894 255 0 0
0.773966 -0.011607 0.208983 255 0 0
-0.150853 0.020195 -0.261578 255 0 0
-0.686570 -0.004213 0.032577 255 0 0
0.717362 -0.002635 -0.005081 255 0 0
-0.333423 -0.000501 -0.309302 255 0 0
0.567773 -0.012850 -0.091731 255 0 0
-0.220135 0.002252 -0.314855 255 0 0
-0.577946 0.009005 -0.029731 0 0 255
-0.154255 0.021773 -0.116458 255 0 0
0.644723 -0.003729 0.021033 153 0 76
0.439819 -0.002056 -0.011869 255 0 0
0.440652 -0.026338 0.230089 255 0 0
-0.660276 -0.028138 0.273015 255 0 0
-0.584500 -0.001191 0.248684 255 0 0
-0.348126 -0.010004 0.170753 255 0 0
0.646800 -0.014114 -0.061570 255 0 0
0.404012 -0.022541 0.139481 255 0 0
-0.736999 0.018022 -0.322202 255 0 0
-0.143258 -0.011804 0.213680 255 0 0
-0.485616 -0.009069 0.148445 255 0 0
-0.747773 -0.027484 0.257430 255 0 0
0.280934 -0.027964 0.283393 255 0 0
0.619746 0.002953 -0.138403 255 0 0
-0.453434 -0.004526 0.040052 255 0 0
0.245720 -0.021248 0.108646 255 0 0
-0.882703 -0.005310 0.058743 255 0 0
0.674035 -0.025376 0.290385 255 0 0
0.347029 0.001140 -0.088124 76 153 0
0.640192 0.010325 0.156665 0 127 127
-0.560121 0.001872 -0.112604 255 0 0
0.117654 0.014520 0.056592 127 127 0
-0.782449 -0.021819 0.299380 255 0 0
0.133217 -0.009616 -0.168905 255 0 0
-0.543813 0.014960 0.046085 76 0 153
0.767703 -0.001729 -0.026685 255 0 0
-0.842828 -0.011575 -0.122152 255 0 0
-0.624330 -0.003918 -0.301940 255 0 0
0.783670 0.005962 -0.210195 255 0 0
-0.718909 0.009723 0.171049 204 51 127
0.044824 -0.005405 -0.269364 255 0 0
0.508635 0.003201 0.143888 255 0 0
0.462718 -0.015191 -0.035882 255 0 0
-0.707286 0.019324 -0.240786 255 0 0
0.585953 -0.000414 0.194980 0 127 127
-0.360933 0.005158 0.098875 153 0 76
0.105975 0.012820 0.097154 0 127 127
0.892733 -0.000537 0.233061 255 0 0
0.186792 -0.006486 0.086817 255 0 0
-0.748778 0.025085 -0.195479 0 0 255
-0.069420 0.013067 0.079388 153 0 76
-0.025636 -0.011372 0.203384 255 0 0
0.254623 -0.008436 0.133342 255 0 0
0.841005 0.017501 -0.068562 153 76 0
-0.821647 -0.012955 -0.089231 255 0 0
-0.677317 0.009510 0.176125 204 51 127
0.822029 0.000711 -0.084911 255 0 0
-0.051782 0.008557 -0.000576 255 0 0
-0.216482 -0.009700 0.163498 255 0 0
-0.116222 0.003496 0.114794 76 0 153
0.020228 -0.008601 -0.193114 255 0 0
-0.915083 -0.022570 0.184326 255 0 0
-0.958640 0.018211 -0.214245 255 0 0
0.864668 0.000614 0.170457 127 127 0
0.451958 0.003736 -0.150049 255 0 0
-0.331564 -0.027244 0.251685 255 0 0
-0.225898 -0.002471 -0.008983 255 0 0
0.190474 -0.002688 0.263445 255 0 0
-0.270164 0.016008 -0.269502 255 0 0
0.175784 -0.003177 -0.303576 255 0 0
-0.678556 0.005073 -0.188977 255 0 0
-0.134180 0.004636 -0.178569 255 0 0
0.895167 0.015944 -0.160165 255 0 0
-0.483467 -0.000023 -0.067386 255 0 0
0.233268 -0.006715 -0.238107 255 0 0
0.392025 -0.006947 0.222285 255 0 0
-0.317943 -0.014280 -0.057613 255 0 0
0.752134 -0.000152 -0.310006 255 0 0
-0.068857 0.016270 -0.167934 255 0 0
0.122612 -0.000798 0.239307 255 0 0
-0.089471 0.009257 0.182163 0 255 0
0.497212 -0.000995 0.244001 255 0 0
-0.507653 -0.006224 0.284023 255 0 0
0.800283 -0.001648 -0.028626 255 0 0
0.561548 0.006461 0.030955 255 0 0
-0.608825 -0.012126 0.221377 255 0 0
0.889314 -0.016527 0.158218 255 0 0
0.147637 -0.018391 0.040460 255 0 0
-0.615937 0.002971 -0.138832 255 0 0
0.154249 0.010017 0.137346 0 127 127
0.016661 0.025376 -0.202434 0 127 127
-0.160573 -0.000182 0.189451 255 0 0
0.884949 -0.009654 -0.021297 255 0 0
-0.149405 -0.014405 -0.054623 255 0 0
0.277949 -0.006596 0.150512 255 0 0
-0.727223 0.012862 0.053729 0 127 127
0.333364 -0.012882 -0.090961 255 0 0
-0.576434 0.022344 -0.130080 153 76 0
-0.586457 -0.010330 0.307915 255 0 0
0.431037 -0.012454 -0.101179 255 0 0
-0.311274 -0.008802 0.142065 255 0 0
0.607058 -0.010024 0.306133 255 0 0
0.265874 -0.015017 -0.040020 255 0 0
0.145698 0.002697 -0.132302 255 0 0
0.187623 -0.026867 0.242700 255 0 0
0.405295 -0.016960 0.006329 255 0 0
-0.295327 -0.002879 0.000736 255 0 0
0.005713 -0.010026 -0.159122 255 0 0
0.088611 0.009337 0.180237 127 127 0
-0.388572 0.002652 0.121836 153 0 76
0.654830 -0.008558 -0.194132 255 0 0
-0.269558 -0.012577 -0.098238 255 0 0
-0.917685 0.017399 -0.307347 255 0 0
-0.318638 0.009468 0.177135 255 0 0
0.670603 0.009727 0.170935 0 127 127
-0.634010 0.019969 -0.256192 255 0 0
0.124390 -0.010540 0.222134 255 0 0
-0.279849 0.010098 0.162093 255 0 0
-0.025729 -0.004824 -0.283232 255 0 0
-0.801455 -0.021801 0.121826 255 0 0
-0.255724 0.009000 -0.153275 0 0 255
-0.092246 -0.008924 -0.185416 255 0 0
0.554580 0.017356 -0.306324 255 0 0
-0.016948 0.012116 0.113934 76 153 0
0.127072 -0.018526 0.043687 255 0 0
-0.922231 -0.006859 0.287716 255 0 0
-0.391413 0.005161 -0.191086 255 0 0
-0.015960 0.009489 -0.153254 255 0 0
0.131548 -0.003994 0.271044 255 0 0
-0.274822 -0.020722 0.096083 255 0 0
0.256200 -0.008155 0.295261 255 0 0
0.763272 -0.009623 0.161647 127 0 127
-0.393418 -0.017825 0.026955 255 0 0
-0.645143 0.015259 -0.040718 255 0 0
-0.898968 0.013474 0.081537 127 127 0
0.062252 -0.010270 -0.153303 255 0 0
-0.867529 -0.007169 0.289522 255 0 0
-0.469712 -0.022840 0.146624 255 0 0
-0.348538 -0.027692 0.262387 255 0 0
0.157467 0.020154 -0.269329 255 0 0
0.546969 -0.027981 0.269282 255 0 0
0.748918 0.013714 -0.142097 127 127 0
0.223022 -0.003773 -0.302260 255 0 0
0.061612 0.020962 -0.097120 127 0 127
0.581652 0.001117 -0.094590 0 127 127
-0.141226 0.014394 -0.137758 255 0 0
-0.066235 0.019815 -0.252522 255 0 0
-0.122213 0.011993 -0.326385 255 0 0
0.229708 0.009641 0.173007 127 0 127
0.658542 -0.005860 0.071863 255 0 0
-0.453122 -0.008600 -0.193135 255 0 0
-0.048482 -0.014105 -0.061800 255 0 0
-0.264098 -0.019731 0.072436 255 0 0
0.871549 0.001557 0.147970 127 127 0
-0.565926 -0.021432 0.113028 255 0 0
-0.115781 0.016010 -0.161733 255 0 0
0.358932 0.000479 -0.072344 76 0 153
0.201203 -0.007652 0.114627 255 0 0
-0.247699 -0.023047 0.151570 255 0 0
0.383617 0.015741 -0.190466 255 0 0
0.187337 0.019613 -0.247695 255 0 0
0.253243 0.016164 -0.200547 255 0 0
-0.834183 -0.001148 0.212505 76 0 153
-0.181786 -0.007847 -0.211102 255 0 0
-0.797724 -0.009487 -0.171982 255 0 0
0.431784 0.002949 -0.131270 255 0 0
0.827390 -0.023978 0.173762 255 0 0
-0.888133 -0.011596 0.208726 255 0 0
-0.180467 -0.000528 -0.055358 255 0 0
-0.835086 -0.000051 0.186334 76 0 153
-0.430949 0.014823 0.049356 153 76 0
0.006260 0.016142 -0.277358 255 0 0
-0.708222 -0.010499 -0.147818 255 0 0
0.236569 -0.000534 -0.055194 255 0 0
-0.496895 -0.007080 0.100986 255 0 0
0.638799 0.005788 -0.198355 255 0 0
-0.300539 0.016956 -0.219447 76 0 153
0.053820 -0.005406 0.061037 255 0 0
0.225043 0.018406 -0.036135 127 0 127
-0.311638 -0.002046 -0.019131 255 0 0
-0.934128 0.009732 -0.011935 127 0 127
0.276037 -0.010509 0.182794 255 0 0
-0.377173 -0.027271 0.252345 255 0 0
0.130332 -0.024199 0.179036 255 0 0
-0.351748 0.025860 -0.213987 153 76 0
0.399007 -0.011101 0.196905 255 0 0
-0.327831 -0.006959 0.098093 255 0 0
0.100030 -0.011072 -0.134158 255 0 0
-0.444158 -0.025451 0.208916 255 0 0
-0.078398 0.001261 -0.098038 255 0 0
-0.807334 -0.026204 0.288290 255 0 0
-0.185541 -0.011687 0.210903 255 0 0
0.519302 0.017786 -0.021347 76 0 153
-0.035702 0.003025 0.112930 255 0 0
0.114169 -0.025484 0.290113 255 0 0
0.379830 -0.011497 0.206371 255 0 0
0.016843 0.015259 -0.137900 127 127 0
0.911553 0.007835 0.033320 255 0 0
0.328655 0.017741 -0.020276 76 0 153
0.220020 -0.003742 0.021325 127 127 0
0.703698 -0.003275 0.010204 255 0 0
-0.569310 0.012508 -0.059401 0 0 255
0.469041 -0.021622 0.117559 255 0 0
-0.800427 -0.000620 -0.053142 255 0 0
-0.255864 -0.016999 0.007260 255 0 0
0.081527 -0.011023 0.195051 255 0 0
0.001172 0.008819 0.006913 0 255 0
-0.429204 -0.001984 -0.020607 255 0 0
0.663920 -0.003950 0.270787 255 0 0
0.762797 0.016731 -0.014215 76 0 153
0.224214 -0.002798 -0.001183 255 0 0
0.565281 0.020104 -0.123458 0 127 127
0.729098 -0.006570 -0.241581 255 0 0
0.023506 -0.027228 0.251311 255 0 0
-0.239084 0.020077 -0.258769 255 0 0
-0.657594 -0.005478 -0.267620 255 0 0
0.261635 -0.007739 -0.213674 255 0 0
-0.758794 0.007114 -0.174861 255 0 0
0.553516 -0.004870 -0.282128 255 0 0
-0.787261 0.009003 -0.029703 127 127 0
-0.822055 0.005167 0.061820 127 0 127
0.301754 -0.009617 -0.168879 255 0 0
-0.760179 -0.020556 0.092120 255 0 0
-0.646325 -0.025760 0.216297 255 0 0
-0.697701 -0.006362 0.083850 255 0 0
-0.911363 -0.003238 -0.279726 255 0 0
-0.591524 0.008603 -0.000549 255 0 0
0.309725 0.022102 -0.124669 76 153 0
0.388109 -0.026587 0.236032 255 0 0
-0.350020 0.019636 -0.248236 255 0 0
0.020637 -0.019355 0.063458 255 0 0
-0.184286 -0.010237 0.176306 255 0 0
-0.058091 0.002021 0.136899 153 0 76
-0.890368 0.025931 -0.215669 255 0 0
-0.380940 0.001355 -0.313045 255 0 0
-0.719451 -0.010022 0.171178 255 0 0
0.072730 0.009062 -0.031111 0 127 127
-0.195497 -0.017412 0.017115 255 0 0
-0.198045 0.016256 -0.167600 255 0 0
0.734475 -0.021071 0.104409 255 0 0
-0.145018 -0.002202 -0.015397 255 0 0
0.025101 -0.001587 -0.307086 255 0 0
-0.399688 -0.019102 0.057445 255 0 0
-0.966471 0.013061 -0.091359 255 0 0
0.453383 0.013320 -0.132687 153 0 76
0.192457 -0.025354 0.206596 255 0 0
0.443216 -0.009919 0.168713 255 0 0
-0.611254 -0.006174 0.079363 255 0 0
-0.698309 0.018073 -0.323428 255 0 0
-0.023221 -0.006004 0.075302 255 0 0
0.371067 -0.006856 -0.234738 255 0 0
0.721910 0.013435 -0.018121 76 0 153
-0.496352 -0.001462 -0.033070 255 0 0
0.101176 -0.009147 -0.180085 255 0 0
-0.406955 -0.003864 0.024237 255 0 0
0.852597 -0.001161 0.212807 127 127 0
-0.472758 -0.011193 0.199116 255 0 0
-0.364434 -0.002343 -0.012039 255 0 0
0.486367 -0.023270 0.156879 255 0 0
0.819268 0.011286 0.133738 127 127 0
0.828429 -0.007783 0.117747 127 127 0
-0.608533 -0.002614 -0.005569 255 0 0
0.431337 0.016063 -0.151077 255 0 0
-0.877230 -0.026076 0.223840 255 0 0
-0.854428 0.015107 0.042588 127 0 127
-0.627729 0.019699 -0.066972 255 0 0
-0.715838 0.017364 -0.306507 255 0 0
-0.629044 -0.016072 -0.014855 255 0 0
0.821219 0.003028 -0.140198 255 0 0
-0.517198 -0.009832 -0.163735 255 0 0
0.521795 0.008423 0.202048 76 153 0
-0.826466 -0.004615 -0.269266 127 127 0
0.348083 0.006913 -0.153362 255 0 0
-0.149089 -0.008707 -0.190592 255 0 0
-0.786606 -0.002537 -0.007415 255 0 0
-0.075364 0.019477 -0.061695 153 0 76
-0.128770 0.008489 0.200488 255 0 0
0.339626 -0.027865 0.283673 255 0 0
-0.583013 -0.009139 -0.180280 255 0 0
-0.194422 0.017624 -0.017476 153 76 0
-0.038955 -0.024810 0.193612 255 0 0
-0.822925 -0.028095 0.272009 255 0 0
0.892551 0.004367 0.116071 255 0 0
0.009677 -0.007478 -0.219912 255 0 0
-0.538483 0.017847 -0.022782 0 0 255
-0.737770 0.003138 -0.142816 255 0 0
-0.608248 -0.022404 0.136218 255 0 0
-0.659041 0.000329 0.177263 0 0 255
0.237823 -0.024875 0.195180 255 0 0
0.186727 -0.006750 0.287085 255 0 0
-0.239958 -0.004103 0.029953 255 0 0
-0.533930 0.023868 -0.187670 76 0 153
-0.337246 -0.013005 -0.088033 255 0 0
-0.635322 0.003373 -0.317115 255 0 0
-0.739567 -0.005768 -0.280854 255 0 0
-0.070534 0.009785 0.169558 0 255 0
-0.728985 -0.006639 -0.239924 255 0 0
-0.085355 0.008805 0.010551 0 0 255
0.498623 0.016336 -0.281980 255 0 0
0.893266 0.012826 -0.085761 255 0 0
-0.695392 0.018266 -0.032795 0 255 0
0.048748 -0.026284 0.228784 255 0 0
-0.186971 -0.022757 0.144636 255 0 0
0.500615 -0.012058 -0.110642 255 0 0
-0.511183 0.002965 -0.316292 255 0 0
-0.713965 -0.001105 0.211472 204 51 127
0.717435 -0.023317 0.158003 255 0 0
-0.500847 -0.019696 0.071616 255 0 0
-0.013289 -0.021680 0.118941 255 0 0
0.416699 -0.001325 0.251875 255 0 0
-0.393243 0.001434 -0.102164 255 0 0
-0.633730 -0.023932 0.172662 255 0 0
0.416782 0.016165 -0.200569 0 0 255
-0.325230 -0.024862 0.194852 255 0 0
-0.037605 0.009644 -0.186766 255 0 0
-0.237874 -0.024832 0.291759 255 0 0
0.872556 0.004250 -0.109161 255 0 0
-0.831239 -0.001866 -0.023423 255 0 0
0.310940 -0.007114 0.222278 255 0 0
0.896635 -0.001537 -0.170289 255 0 0
0.477597 0.021010 -0.098270 153 0 76
0.799349 -0.003990 0.027258 255 0 0
0.876679 0.000196 -0.281346 255 0 0
-0.758092 -0.008518 0.135292 255 0 0
-0.345656 0.003349 -0.147858 255 0 0
-0.468334 0.015707 0.012795 153 76 0
0.340487 -0.010641 -0.144451 255 0 0
0.042000 -0.012944 -0.089491 255 0 0
0.307396 0.007394 -0.153342 255 0 0
-0.445017 -0.011816 -0.116416 255 0 0
-0.658490 -0.004531 0.040156 255 0 0
-0.166782 0.008193 0.207536 255 0 0
-0.348375 -0.003631 0.018677 255 0 0
-0.465177 -0.007358 -0.222763 255 0 0
0.871462 -0.003286 0.010465 255 0 0
0.093987 0.015876 0.024222 127 127 0
-0.628964 0.021183 -0.102399 76 0 153
0.894638 0.009445 -0.005097 255 0 0
0.101267 -0.002316 -0.012692 0 127 127
-0.725501 0.004424 0.079565 0 127 127
-0.159149 0.005753 0.048459 0 0 255
-0.470674 -0.001946 -0.021524 255 0 0
-0.070039 -0.007153 0.102720 255 0 0
-0.255169 -0.014334 -0.056317 255 0 0
-0.932659 -0.022748 0.248232 255 0 0
0.088691 -0.006794 0.094162 255 0 0
-0.469156 -0.012832 -0.092169 255 0 0
-0.384880 0.025615 -0.208136 153 76 0
0.647412 0.003382 0.216529 0 127 127
-0.619899 0.012128 0.113668 255 0 0
0.803358 0.000456 -0.279008 0 255 0
-0.872354 0.001582 -0.105686 255 0 0
0.424220 0.000038 -0.061815 255 0 0
0.288359 -0.018479 0.042558 255 0 0
0.654018 0.000440 0.174609 0 127 127
0.855141 0.022773 -0.140330 0 255 0
-0.962600 0.002843 0.152437 255 0 0
0.080704 0.022701 -0.138610 127 0 127
0.165741 0.004833 -0.183255 255 0 0
-0.767552 -0.016285 -0.009789 255 0 0
0.676630 0.012730 0.099288 255 0 0
-0.309022 0.005301 -0.194424 255 0 0
0.670742 -0.002638 -0.304767 255 0 0
-0.365204 -0.021344 0.110915 255 0 0
-0.503848 0.000967 -0.091029 255 0 0
-0.549560 -0.011316 0.202037 255 0 0
-0.313465 -0.009080 -0.181689 255 0 0
0.120182 0.008795 0.193171 127 127 0
0.664920 0.016690 -0.177949 255 0 0
-0.019716 -0.001349 -0.307593 255 0 0
0.193022 -0.005203 -0.274176 255 0 0
-0.547796 -0.006925 -0.233106 255 0 0
-0.874894 -0.024119 0.177139 255 0 0
0.366354 0.003580 0.134836 255 0 0
0.682017 -0.011784 0.222082 255 0 0
0.720125 0.003204 0.108663 0 255 0
0.019736 -0.003898 0.025067 255 0 0
-0.331374 -0.005587 0.065352 76 0 153
-0.664430 -0.026643 0.237367 255 0 0
0.037074 -0.000582 -0.054056 76 153 0
-0.897769 0.011782 0.121913 127 127 0
-0.573227 0.003002 -0.139581 255 0 0
-0.842226 0.010178 0.160173 76 0 153
-0.701928 -0.012132 -0.108855 255 0 0
0.391174 0.016579 -0.287781 255 0 0
-0.601641 0.017202 -0.302650 255 0 0
0.413737 0.017508 -0.309936 255 0 0
0.217488 -0.000388 0.229525 255 0 0
0.374507 -0.022624 0.141465 255 0 0
-0.930430 -0.008288 0.129809 255 0 0
-0.129415 -0.027341 0.254002 255 0 0
0.622786 -0.000417 0.195069 0 127 127
-0.206814 -0.004529 0.040102 255 0 0
0.689395 0.000570 -0.081539 255 0 0
0.367590 0.002771 -0.127025 255 0 0
0.496080 -0.022276 0.133167 255 0 0
-0.508054 -0.004332 0.035424 76 0 153
0.171075 -0.008900 0.144391 255 0 0
0.738155 -0.003998 0.027452 255 0 0
0.044912 0.001860 0.140724 0 127 127
-0.094504 -0.019110 0.057630 255 0 0
0.612160 -0.019350 0.063355 255 0 0
-0.765736 -0.008859 -0.186965 255 0 0
0.132267 0.016623 0.006404 127 127 0
-0.085070 -0.025649 0.289693 255 0 0
0.363203 0.018563 -0.039870 76 0 153
0.749318 -0.010293 -0.283649 255 0 0
-0.011363 0.008760 0.066354 255 0 0
-0.464025 0.018795 -0.228176 255 0 0
0.583664 -0.027443 0.256436 255 0 0
-0.121156 -0.009364 0.155480 255 0 0
-0.577979 -0.013146 -0.084666 255 0 0
0.324683 -0.001212 -0.307869 255 0 0
-0.682087 -0.006840 0.095249 0 255 0
0.569226 -0.001775 -0.025601 255 0 0
0.330436 -0.019064 0.056515 255 0 0
0.648741 -0.012918 -0.090104 255 0 0
-0.797515 -0.023092 0.152620 255 0 0
-0.440858 -0.005219 0.056569 255 0 0
-0.057798 0.001808 -0.111089 255 0 0
-0.550593 -0.009108 -0.181006 255 0 0
0.446789 -0.007498 -0.219440 255 0 0
0.306848 0.000861 -0.081461 255 0 0
-0.167626 -0.011709 -0.118947 255 0 0
-0.662340 -0.011444 0.205099 255 0 0
-0.931871 0.006374 -0.185573 255 0 0
-0.297689 -0.010678 0.222128 255 0 0
0.134147 -0.008066 -0.205885 255 0 0
-0.762115 0.008001 -0.229181 255 0 0
-0.489638 -0.016416 -0.006645 255 0 0
-0.655973 -0.009747 -0.165780 255 0 0
0.249542 0.008650 -0.021268 127 0 127
0.685550 0.008166 0.208190 0 127 127
0.529843 0.003783 -0.317943 255 0 0
-0.245845 -0.020323 0.086564 255 0 0
0.542901 0.017353 -0.193770 255 0 0
-0.787729 -0.006560 0.088560 255 0 0
-0.347665 0.017604 -0.016995 153 0 76
-0.090225 0.019794 -0.252014 255 0 0
0.122559 -0.003573 0.017315 255 0 0
0.088159 -0.017218 0.012482 255 0 0
0.453136 0.017886 -0.194978 0 0 255
-0.800557 -0.006618 -0.240431 255 0 0
0.184683 0.023302 -0.183912 127 127 0
0.157034 0.002819 0.117851 0 127 127
0.353273 0.001037 0.160364 153 76 0
0.466204 0.020271 -0.263400 255 0 0
-0.570154 0.013971 0.002513 153 0 76
-0.679844 0.006416 -0.221037 204 51 127
0.685425 -0.018871 0.051924 255 0 0
0.851356 0.014372 0.060117 153 76 0
-0.652160 -0.003684 0.019958 255 0 0
0.300238 0.003129 0.145609 255 0 0
0.736632 0.004484 0.143089 0 255 0
-0.126119 -0.017438 0.017735 255 0 0
0.798419 -0.006652 0.090777 255 0 0
0.840093 0.018187 -0.088022 0 255 0
-0.100062 0.011731 0.123120 153 0 76
-0.793982 0.015682 -0.153897 255 0 0
-0.683118 -0.016633 -0.001475 255 0 0
-0.624293 -0.018143 0.034559 255 0 0
0.239799 -0.019689 0.071435 255 0 0
0.845471 -0.024032 0.292061 255 0 0
0.875274 0.015457 -0.148535 255 0 0
-0.958656 -0.019036 0.271885 255 0 0
0.901746 0.001537 0.183583 255 0 0
-0.133279 -0.004567 0.041020 255 0 0
0.715710 -0.008264 0.129230 255 0 0
0.522342 0.019680 -0.066532 76 0 153
-0.300095 -0.017841 0.027346 255 0 0
0.642384 0.007014 -0.153358 255 0 0
0.535489 0.005905 -0.208827 255 0 0
-0.490979 -0.025971 0.288880 255 0 0
0.895487 -0.017184 0.196656 255 0 0
-0.249835 0.021707 -0.114894 0 0 255
-0.534879 0.011180 -0.076471 0 0 255
-0.577165 -0.009869 0.167522 255 0 0
-0.125558 -0.001427 -0.033902 255 0 0
0.088776 -0.013221 -0.082876 255 0 0
-0.208844 -0.003249 0.009569 255 0 0
-0.791176 0.005488 0.054167 0 127 127
-0.577423 -0.008326 -0.199670 255 0 0
-0.874628 0.019699 -0.066986 127 0 127
0.260745 -0.003730 0.021061 255 0 0
0.815183 -0.019176 0.059195 255 0 0
-0.520326 -0.006517 -0.242840 255 0 0
-0.362990 -0.011650 -0.120371 255 0 0
-0.089650 -0.006792 0.094113 255 0 0
0.501146 -0.000076 -0.059113 255 0 0
-0.914974 -0.011597 0.208750 255 0 0
0.153863 0.011562 -0.090744 0 127 127
-0.537212 0.003092 -0.141721 255 0 0
0.091491 -0.001417 0.254060 255 0 0
-0.523134 -0.011423 0.204600 255 0 0
-0.201776 0.019521 -0.245503 255 0 0
0.268725 0.007104 -0.174861 255 0 0
0.312224 0.007689 0.036808 255 0 0
-0.754413 -0.014193 -0.059698 255 0 0
-0.498608 0.003316 -0.147072 255 0 0
-0.423942 0.016618 0.006529 153 76 0
-0.299460 -0.016164 -0.012658 255 0 0
-0.962910 0.015220 -0.255361 255 0 0
-0.308006 0.000057 -0.069302 255 0 0
0.478546 -0.009918 0.168687 255 0 0
0.678217 0.022894 -0.143210 127 0 127
0.264517 0.016458 -0.284883 255 0 0
0.373788 -0.009886 -0.162454 255 0 0
-0.569574 -0.011510 -0.123710 255 0 0
0.242181 -0.027958 0.268731 255 0 0
0.362828 -0.006244 0.284137 255 0 0
-0.434531 -0.005854 0.281867 255 0 0
-0.084433 -0.000571 -0.054319 255 0 0
-0.842095 0.020006 -0.257068 255 0 0
0.150817 0.017069 -0.056420 127 0 127
-0.422160 0.016578 -0.175276 255 0 0
0.131227 -0.005793 0.070262 255 0 0
0.847471 -0.005443 0.061911 255 0 0
-0.604004 -0.010677 0.186800 255 0 0
0.473944 0.016345 -0.169725 255 0 0
-0.976103 0.004144 -0.193999 255 0 0
-0.240772 -0.026848 0.242248 255 0 0
-0.879543 0.015886 -0.158776 255 0 0
-0.465711 -0.005760 -0.260905 255 0 0
0.693805 -0.006583 -0.241263 255 0 0
-0.317836 0.003043 -0.140548 255 0 0
-0.554564 -0.016165 -0.012634 255 0 0
0.709506 -0.012066 0.219937 0 127 127
-0.660579 -0.011600 -0.121554 255 0 0
-0.713277 -0.000782 -0.049293 0 255 0
0.292423 0.004676 0.108683 255 0 0
0.455597 -0.018897 0.052531 255 0 0
0.554157 -0.023605 0.164879 255 0 0
-0.393420 0.017352 -0.306215 255 0 0
-0.416347 -0.009614 -0.168948 255 0 0
0.045301 0.005972 -0.210441 255 0 0
-0.600732 0.005425 0.124155 255 0 0
0.545568 0.003653 0.133091 255 0 0
0.654262 -0.011076 -0.134072 255 0 0
0.906660 0.015667 -0.266008 255 0 0
0.224240 0.023756 -0.224230 0 255 0
-0.093766 0.001839 -0.111824 255 0 0
-0.503392 0.016393 -0.283330 255 0 0
0.209193 -0.006765 0.093462 255 0 0
-0.199694 -0.001994 -0.020363 255 0 0
-0.758459 -0.011501 0.222094 255 0 0
0.093916 -0.004712 -0.285910 255 0 0
-0.856409 0.016505 -0.286005 255 0 0
-0.348745 -0.010144 0.306834 255 0 0
-0.746428 0.008326 -0.013529 127 127 0
0.481015 0.019450 -0.243797 255 0 0
-0.645982 0.004679 0.142886 255 0 0
0.372101 0.004589 -0.177440 255 0 0
0.295886 -0.015878 -0.019484 255 0 0
0.018903 -0.005534 -0.266288 255 0 0
0.234315 0.008414 0.202275 127 0 127
-0.041052 -0.008251 -0.201474 255 0 0
0.772056 0.012720 0.099533 0 255 0
0.517233 0.004642 0.109512 255 0 0
-0.414569 -0.028366 0.278474 255 0 0
-0.882280 -0.024868 0.291670 255 0 0
-0.956134 -0.017152 0.203288 255 0 0
0.759553 -0.000994 0.243986 255 0 0
-0.726847 0.016101 -0.163900 255 0 0
-0.887625 -0.006060 -0.253731 255 0 0
-0.613342 0.016046 -0.275047 255 0 0
-0.355828 0.000566 0.219452 255 0 0
0.067318 0.006793 0.023043 0 255 0
-0.722624 -0.029182 0.261260 255 0 0
-0.503184 -0.015764 -0.022203 255 0 0
-0.484558 -0.018711 0.048095 255 0 0
0.080595 0.011579 0.126753 0 127 127
-0.779747 -0.009116 0.149544 255 0 0
0.576167 0.012301 0.109540 0 0 255
0.657418 -0.003007 0.003811 255 0 0
-0.862236 -0.003647 0.019065 127 0 127
0.752773 -0.018428 0.041362 255 0 0
0.787902 0.002530 -0.268505 0 255 0
0.389552 0.012215 0.078902 153 0 76
-0.498973 0.003801 0.151494 255 0 0
0.740969 -0.013259 -0.081966 255 0 0
-0.489888 0.018452 -0.088298 76 0 153
0.592130 0.016860 -0.294469 255 0 0
0.830610 -0.002686 -0.003858 255 0 0
0.696148 -0.000543 -0.054985 255 0 0
0.359218 -0.010700 -0.143028 255 0 0
-0.067318 0.016900 -0.014391 153 0 76
0.408038 -0.020732 0.096330 255 0 0
-0.896626 0.006562 -0.224506 255 0 0
0.831525 0.005724 -0.204515 255 0 0
-0.457326 -0.008900 0.144402 255 0 0
0.285256 0.010564 -0.031802 255 0 0
0.601214 -0.011258 0.200658 255 0 0
-0.445861 -0.010041 0.171618 255 0 0
-0.297422 0.001449 0.150534 255 0 0
0.362561 0.019639 -0.248313 255 0 0
0.905487 0.011049 -0.043370 255 0 0
0.082057 -0.012461 -0.101021 255 0 0
0.595657 0.016994 -0.185204 255 0 0
-0.568235 -0.004832 0.047331 255 0 0
-0.896182 -0.000166 -0.063980 255 0 0
-0.275136 -0.013670 -0.072176 255 0 0
0.875098 -0.015545 0.084232 255 0 0
-0.379799 0.018441 -0.036954 153 0 76
0.484875 0.001151 -0.088388 255 0 0
0.461599 -0.000784 0.203829 76 0 153
0.378473 -0.000797 0.239266 255 0 0
-0.763753 0.009869 0.112208 127 127 0
-0.108781 0.025312 -0.200892 76 153 0
-0.182037 0.004571 -0.177004 255 0 0
0.414114 0.020832 -0.094020 153 0 76
-0.160289 -0.020588 0.092892 255 0 0
-0.151094 -0.025950 0.288932 255 0 0
0.617001 0.005635 -0.202383 255 0 0
0.083466 -0.025401 0.290321 255 0 0
0.349390 0.007484 0.041685 255 0 0
0.446727 -0.014783 -0.045627 255 0 0
0.355037 -0.024097 0.176617 255 0 0
0.389688 0.009269 -0.229127 255 0 0
-0.254968 0.000751 -0.085869 255 0 0
-0.467536 -0.006979 0.288416 255 0 0
-0.931484 -0.012978 0.012552 255 0 0
0.785422 -0.027828 0.265634 255 0 0
0.445569 0.007150 0.049667 255 0 0
0.518044 -0.024089 0.176421 255 0 0
-0.491445 0.004543 0.076726 204 51 127
0.224860 -0.021012 0.103016 255 0 0
-0.678398 -0.003360 0.012231 76 153 0
-0.077687 -0.004835 -0.282971 255 0 0
-0.760392 -0.019286 0.061828 255 0 0
-0.293759 0.016665 -0.289816 255 0 0
-0.224197 0.019373 -0.241976 255 0 0
-0.816492 0.015432 0.034833 127 0 127
-0.571283 -0.023154 0.154109 255 0 0
-0.509186 -0.011435 -0.125499 255 0 0
0.151605 -0.024243 0.293251 255 0 0
0.271582 -0.001023 0.244672 255 0 0
-0.864154 -0.002523 -0.007757 255 0 0
-0.259220 0.010338 0.156365 255 0 0
-0.571891 -0.010928 0.192794 255 0 0
-0.369683 0.014450 0.058253 76 0 153
-0.778597 -0.013056 -0.086818 255 0 0
-0.518289 -0.001201 0.248903 255 0 0
-0.225406 0.010290 0.157502 255 0 0
0.620224 0.002580 0.123559 0 0 255
-0.397384 -0.010869 0.191378 255 0 0
-0.585592 -0.019704 0.071799 255 0 0
-0.491672 -0.004300 -0.295735 255 0 0
0.056275 0.013100 -0.039974 76 153 0
0.377762 -0.021221 0.108002 255 0 0
0.679753 -0.035052 0.265774 255 0 0
-0.848874 -0.007084 0.289029 255 0 0
0.312533 -0.027815 0.283814 255 0 0
-0.161763 0.000458 -0.078867 255 0 0
-0.816727 -0.010649 0.186129 255 0 0
-0.921095 0.005706 -0.204083 255 0 0
-0.062711 0.009906 -0.051247 153 0 76
-0.403704 0.016201 -0.201439 255 0 0
0.301893 -0.019539 0.067850 255 0 0
-0.551117 0.019051 -0.051509 0 0 255
-0.539049 0.017501 -0.309778 255 0 0
0.750059 0.018762 -0.044632 76 0 153
0.770509 0.000602 -0.082312 255 0 0
0.277949 0.007709 -0.115176 255 0 0
0.304404 -0.022107 0.129133 255 0 0
-0.185058 0.015798 0.026085 204 51 127
0.385954 0.000088 -0.063009 255 0 0
0.901586 -0.001958 -0.132773 255 0 0
-0.448985 -0.010019 0.306107 255 0 0
-0.715412 -0.001351 0.252494 255 0 0
-0.788402 -0.011237 0.200159 255 0 0
-0.001654 0.012904 -0.122761 127 127 0
-0.468457 0.008512 0.199933 255 0 0
-0.937315 0.006125 0.074117 127 127 0
-0.190508 0.017877 -0.318743 255 0 0
0.406143 -0.006913 0.288031 255 0 0
-0.830918 0.002357 0.128866 127 127 0
0.506502 0.007697 -0.153329 255 0 0
-0.733343 -0.013304 -0.080914 255 0 0
-0.099008 0.020852 -0.094482 0 255 0
-0.293168 0.002771 0.118990 76 0 153
-0.825530 -0.024877 0.195219 255 0 0
0.593795 -0.008951 0.145626 255 0 0
0.208285 -0.010254 -0.153678 255 0 0
0.795860 -0.009607 0.161259 255 0 0
0.073295 -0.026649 0.237497 255 0 0
-0.031053 0.022411 -0.131697 127 127 0
0.146894 0.008797 -0.153283 255 0 0
-0.927064 -0.009284 0.153558 255 0 0
0.396648 0.010214 0.159317 76 0 153
0.248532 0.019111 -0.088981 0 127 127
0.811653 -0.022790 0.145430 255 0 0
-0.272423 0.009901 -0.051111 76 0 153
-0.862873 0.008870 0.191396 76 0 153
0.032436 0.018320 -0.072398 76 153 0
0.743038 -0.023621 0.165255 255 0 0
-0.396131 -0.002025 0.259588 255 0 0
0.282009 -0.006797 -0.236151 255 0 0
-0.010278 -0.006707 -0.238296 255 0 0
0.765152 -0.007540 0.111954 255 0 0
-0.078465 0.017401 -0.307397 255 0 0
-0.563704 0.006254 -0.217161 255 0 0
0.248652 0.019552 -0.063481 127 0 127
0.595524 -0.014121 -0.061398 255 0 0
0.703789 0.018608 -0.223707 255 0 0
0.072588 0.025219 -0.198680 127 0 127
-0.561775 0.000640 -0.311603 255 0 0
0.821956 -0.000587 -0.053949 255 0 0
0.858546 -0.010323 -0.098932 255 0 0
-0.180373 0.011521 -0.229033 255 0 0
-0.230528 -0.003435 0.014014 255 0 0
-0.961730 -0.005832 -0.035750 255 0 0
-0.290238 0.016453 -0.172295 255 0 0
0.470050 0.009328 -0.229125 255 0 0
-0.665478 -0.006974 0.288387 255 0 0
-0.130908 0.005306 0.058516 0 0 255
0.016985 0.002802 0.118259 76 153 0
-0.034751 0.001988 -0.115367 255 0 0
-0.863169 0.001907 -0.314160 255 0 0
0.734694 -0.026225 0.227394 255 0 0
-0.958013 0.000330 -0.203378 255 0 0
-0.031514 -0.021266 0.109073 255 0 0
0.112281 -0.000076 -0.066138 255 0 0
0.776999 -0.000746 -0.050148 255 0 0
-0.267470 -0.022356 0.135078 255 0 0
-0.721427 -0.018833 0.051012 255 0 0
-0.943947 0.017490 -0.197045 255 0 0
-0.761434 -0.024325 0.182057 255 0 0
-0.212996 -0.023014 0.150766 255 0 0
0.313714 -0.006169 -0.251140 255 0 0
0.885331 0.017060 -0.186783 255 0 0
0.559490 -0.008566 0.136443 255 0 0
0.099807 -0.011929 0.216679 255 0 0
-0.793563 0.021813 -0.117419 76 153 0
-0.825639 -0.026556 0.235288 255 0 0
0.592169 -0.024095 0.176552 255 0 0
-0.655043 -0.007468 0.110232 255 0 0
-0.299899 -0.019187 0.059471 255 0 0
0.850918 -0.000452 -0.057151 153 76 0
-0.433681 -0.011361 0.203123 255 0 0
-0.366280 0.008934 0.154421 255 0 0
0.193317 0.001683 -0.313708 255 0 0
-0.135217 -0.006510 -0.242998 255 0 0
-0.642551 -0.022767 0.144873 255 0 0
-0.779165 -0.000621 -0.053123 255 0 0
0.062266 -0.003139 0.006960 255 0 0
0.215592 -0.001769 0.258099 255 0 0
-0.284076 -0.008665 0.138804 255 0 0
0.884140 -0.016212 0.132298 255 0 0
-0.858083 -0.006207 0.080160 255 0 0
-0.170203 -0.005457 -0.268122 255 0 0
0.003788 0.021185 -0.102440 127 127 0
-0.661188 0.013227 -0.130473 76 0 153
0.141960 -0.003360 0.012216 255 0 0
-0.621138 0.001210 0.156233 0 0 255
0.050570 -0.017546 0.020301 255 0 0
0.115089 0.016246 -0.167355 255 0 0
-0.248945 -0.011127 -0.132834 255 0 0
-0.523594 -0.002232 -0.014701 255 0 0
-0.021678 0.008253 0.206121 0 255 0
-0.533266 0.017174 -0.228796 255 0 0
-0.277221 -0.017762 0.025458 255 0 0
-0.450254 -0.027824 0.265539 255 0 0
0.027600 -0.004841 0.275972 255 0 0
-0.504489 -0.024555 0.187546 255 0 0
0.628100 0.014456 -0.040869 76 153 0
-0.627220 0.014189 0.050599 153 0 76
-0.910328 -0.007873 0.119888 255 0 0
-0.054677 -0.006554 0.088430 255 0 0
0.700172 -0.007909 -0.209612 255 0 0
0.827863 -0.004322 0.272952 255 0 0
-0.733730 -0.008021 0.123439 255 0 0
-0.672279 0.017529 -0.015205 0 255 0
-0.728529 0.011224 0.135222 0 255 0
-0.910067 -0.002564 -0.006771 255 0 0
-0.165007 -0.014828 -0.044530 255 0 0
0.895316 -0.004850 -0.098561 255 0 0
0.078342 0.005906 -0.208853 255 0 0
-0.339809 0.022169 -0.196410 153 76 0
0.610289 0.013009 0.092638 0 0 255
-0.070204 0.018144 -0.212652 255 0 0
-0.134569 0.007784 -0.229190 255 0 0
-0.036859 -0.006933 0.097482 76 153 0
0.643857 0.010740 0.079120 255 0 0
-0.396142 -0.010040 0.171600 255 0 0
-0.447686 -0.002408 -0.010493 255 0 0
-0.863530 0.009073 0.066030 127 0 127
0.251038 0.015615 0.030470 127 127 0
-0.114635 0.016489 -0.285618 255 0 0
0.907684 -0.002486 0.262270 255 0 0
-0.623750 0.002068 -0.117286 255 0 0
-0.237894 -0.007240 0.104805 255 0 0
0.846921 -0.007635 0.114216 255 0 0
-0.275430 -0.023652 0.294744 255 0 0
-0.091796 -0.027338 0.253949 255 0 0
0.645432 0.002214 -0.120770 255 0 0
-0.139204 -0.019526 0.067550 255 0 0
-0.657100 -0.004702 -0.286131 255 0 0
0.684227 -0.002885 0.000894 255 0 0
0.368452 0.008200 0.024624 255 0 0
0.585679 -0.007502 -0.219336 255 0 0
0.193463 0.013264 0.086549 0 127 127
-0.429226 -0.009164 0.150700 255 0 0
-0.895955 -0.020178 0.083110 255 0 0
-0.112867 0.001322 -0.099497 255 0 0
0.748915 -0.001180 0.213260 127 0 127
0.530854 -0.008458 0.222221 255 0 0
-0.580559 -0.006327 -0.247377 255 0 0
-0.164445 0.003056 -0.316475 255 0 0
0.412538 0.018177 -0.178592 255 0 0
-0.064684 -0.027700 0.262583 255 0 0
0.549273 -0.020425 0.089003 255 0 0
-0.230502 0.009482 -0.041114 153 76 0
-0.152262 -0.002062 0.259800 255 0 0
-0.074981 -0.023138 0.153740 255 0 0
-0.479268 0.002171 -0.119754 255 0 0
-0.031798 -0.019404 0.064644 255 0 0
0.759911 -0.020007 0.079014 255 0 0
0.775465 0.019859 -0.253555 255 0 0
-0.676975 0.000036 -0.068799 255 0 0
0.367649 -0.004883 -0.281832 255 0 0
-0.943621 0.008615 0.014700 255 0 0
-0.239010 0.017971 -0.025748 153 76 0
0.251122 -0.023730 0.167854 255 0 0
-0.591057 -0.003490 0.015319 153 0 76
0.405063 -0.007676 -0.215174 255 0 0
-0.816649 0.012269 -0.107606 76 153 0
-0.280383 0.001466 -0.102916 255 0 0
-0.212059 -0.000546 0.233281 255 0 0
-0.268155 0.008526 -0.018305 255 0 0
-0.716018 0.005521 -0.199676 0 0 255
0.028489 0.016047 -0.162602 255 0 0
0.609116 0.011896 0.063100 204 51 127
-0.097609 -0.006799 -0.236107 255 0 0
-0.763825 0.005583 0.051911 0 127 127
0.701330 0.016988 -0.185061 255 0 0
-0.565025 0.000270 0.178672 0 0 255
0.898119 0.019269 -0.239491 255 0 0
0.409956 -0.016154 -0.012905 255 0 0
0.657459 0.019831 -0.070124 153 0 76
0.653961 -0.004641 0.042788 255 0 0
0.728398 -0.029778 0.281270 255 0 0
-0.330958 0.015947 0.006047 76 0 153
0.805279 0.018941 -0.059493 153 76 0
0.045237 -0.012062 -0.110529 255 0 0
0.419172 -0.011368 0.203297 255 0 0
-0.819302 0.017124 -0.188317 255 0 0
0.654265 -0.026345 0.230236 255 0 0
0.224996 0.016201 -0.278748 255 0 0
0.284423 -0.008856 -0.187022 255 0 0
0.407502 0.008370 0.020565 255 0 0
0.111682 0.002538 -0.128489 255 0 0
0.702925 -0.007160 0.102877 255 0 0
0.405241 -0.012136 -0.108771 255 0 0
-0.553800 -0.023548 0.295006 255 0 0
0.570454 -0.020655 0.094476 255 0 0
-0.809394 -0.002178 -0.015970 255 0 0
-0.448973 0.008916 0.190303 255 0 0
-0.568793 0.013490 0.050868 153 0 76
0.851069 -0.006645 0.090600 255 0 0
-0.689567 0.016233 -0.279517 255 0 0
-0.200653 0.002741 0.125896 153 76 0
-0.161097 -0.011575 0.208234 255 0 0
0.807749 0.002580 -0.315516 255 0 0
-0.038404 -0.005121 0.222361 255 0 0
0.460249 -0.022688 0.142984 255 0 0
0.817627 -0.000741 0.202782 127 127 0
0.357650 0.006013 -0.211406 255 0 0
-0.052259 -0.023333 0.158371 255 0 0
0.299148 -0.007943 -0.208819 255 0 0
-0.586961 -0.027067 0.247475 255 0 0
-0.150926 -0.007037 -0.230439 255 0 0
-0.420729 -0.017768 0.025594 255 0 0
0.176113 0.014518 0.056639 127 127 0
0.838181 -0.016906 0.005036 255 0 0
-0.003006 0.018023 -0.026991 76 153 0
-0.519435 0.021468 -0.109189 76 0 153
0.593908 0.003089 -0.141635 255 0 0
0.738779 -0.007833 -0.211443 255 0 0
-0.631043 0.016871 -0.217422 204 51 127
0.748561 0.011976 -0.081575 127 127 0
-0.185801 0.008368 -0.153301 255 0 0
-0.960428 -0.002961 -0.111457 255 0 0
0.182504 -0.008550 -0.194325 255 0 0
-0.512402 0.022542 -0.134806 76 0 153
-0.285558 -0.005727 0.281127 255 0 0
-0.584525 -0.002189 -0.015720 255 0 0
0.143016 -0.011694 -0.119312 255 0 0
0.852468 -0.002647 -0.004778 255 0 0
-0.826900 -0.001478 -0.307328 255 0 0
