ply
format ascii 1.0
element vertex 1299
property float x
property float y
property float z
property uchar red
property uchar green
property uchar blue
end_header
-0.328863 0.013166 0.188149 76 0 153
0.380328 -0.027332 0.062767 255 0 0
0.113929 -0.008933 0.302766 255 0 0
-0.527370 -0.027332 -0.057898 255 0 0
-0.536124 0.011727 0.013268 153 0 76
0.060253 0.001328 -0.022306 255 0 0
0.351656 -0.027332 -0.200554 255 0 0
0.114973 -0.000262 0.002828 255 0 0
-0.717554 0.008249 0.068219 0 127 127
0.593152 0.008851 0.058704 0 0 255
-0.477771 0.015629 -0.240998 255 0 0
0.230244 0.000086 0.201173 127 0 127
-0.215910 0.017152 0.119426 255 0 0
0.939434 -0.027332 0.279380 255 0 0
-0.092642 0.004549 -0.073184 255 0 0
0.648036 -0.027332 0.071585 255 0 0
-0.439372 0.000281 -0.005755 255 0 0
-0.848147 0.021472 -0.140684 127 127 0
-0.004602 0.000882 -0.015254 255 0 0
0.294525 -0.027332 -0.148398 255 0 0
-0.813595 0.004040 -0.065143 255 0 0
-0.898235 -0.027332 0.133080 255 0 0
-0.804797 -0.027332 0.014143 255 0 0
0.026832 0.007931 0.073232 127 127 0
-0.579760 -0.027332 0.193144 255 0 0
-0.182862 -0.026556 0.309456 255 0 0
-0.454612 -0.027332 0.287152 255 0 0
-0.914599 -0.027332 0.245887 255 0 0
0.838792 0.005388 -0.086430 255 0 0
0.725542 -0.016216 0.309006 255 0 0
-0.794178 0.001165 -0.019731 255 0 0
0.412390 0.012017 -0.191155 255 0 0
0.039652 0.012791 -0.160215 255 0 0
-0.431800 -0.027332 0.253968 255 0 0
0.289666 0.009193 0.186530 255 0 0
0.267538 -0.027332 0.220254 255 0 0
0.715433 0.003333 -0.053981 255 0 0
-0.929742 0.025087 -0.064555 255 0 0
0.519293 -0.027332 0.287513 255 0 0
0.279623 0.001860 0.279917 255 0 0
-0.172340 0.026585 -0.029602 76 0 153
-0.834017 -0.027332 -0.209778 255 0 0
0.169429 -0.000269 0.002934 255 0 0
-0.221648 -0.000423 0.005361 255 0 0
-0.794662 0.005192 0.116504 153 0 76
-0.078121 0.003454 0.272163 255 0 0
0.569415 0.007832 -0.257855 255 0 0
0.818557 -0.027332 -0.190625 255 0 0
0.194799 0.007771 -0.124089 255 0 0
-0.692498 0.012532 0.196402 76 153 0
-0.256161 -0.027332 -0.085931 255 0 0
-0.347934 -0.027332 -0.011799 255 0 0
0.499893 -0.027332 -0.066901 255 0 0
0.265469 -0.027332 -0.011488 255 0 0
-0.715434 -0.027332 -0.207670 255 0 0
0.705485 -0.008873 0.138859 255 0 0
0.170363 -0.027332 -0.140765 255 0 0
0.059993 -0.012768 0.200391 255 0 0
0.002162 0.020949 -0.266119 255 0 0
0.459836 -0.009382 0.146892 255 0 0
-0.267956 -0.027332 -0.162650 255 0 0
-0.673437 0.002416 -0.039479 255 0 0
-0.178737 -0.027332 0.123680 255 0 0
0.296380 -0.027332 -0.078390 255 0 0
0.798353 -0.010867 0.170360 255 0 0
-0.079262 0.038062 -0.269532 255 0 0
0.344690 0.024407 0.004812 127 127 0
0.833562 -0.027332 0.114948 255 0 0
0.406467 -0.027332 0.204667 255 0 0
0.755103 0.001813 -0.029956 255 0 0
-0.506123 -0.027332 0.283311 255 0 0
0.052625 -0.027332 -0.057786 255 0 0
0.855787 0.013914 -0.023275 153 76 0
0.832142 -0.027332 -0.005005 255 0 0
0.688644 -0.001742 0.026206 255 0 0
0.075007 0.007186 -0.114840 255 0 0
0.644371 -0.027332 -0.186164 255 0 0
0.762509 0.034255 -0.209388 255 0 0
0.959623 0.006289 -0.229595 255 0 0
0.635046 0.032825 -0.186807 255 0 0
0.184967 -0.014096 0.307530 255 0 0
-0.096083 -0.027332 0.094617 255 0 0
-0.428216 0.036830 -0.250077 255 0 0
-0.415899 0.003783 0.138764 153 0 76
-0.011932 0.011174 0.022011 127 127 0
-0.384345 0.012173 0.203827 76 0 153
0.931225 -0.027332 0.037397 255 0 0
0.483167 0.037141 -0.196361 153 0 76
-0.202539 0.006267 -0.100331 255 0 0
-0.417446 -0.027332 0.182508 255 0 0
0.815163 0.032140 -0.175980 255 0 0
0.744829 0.022370 -0.069596 153 0 76
0.378287 -0.027332 0.244027 255 0 0
-0.883174 0.005113 0.117748 153 0 76
0.765999 -0.027332 0.097555 255 0 0
0.454941 0.016522 -0.240941 255 0 0
0.362438 -0.027332 -0.045480 255 0 0
0.364096 -0.027332 0.136137 255 0 0
0.508162 -0.027332 0.003085 255 0 0
-0.101425 -0.027332 0.029936 255 0 0
-0.153021 0.010711 0.029316 0 127 127
-0.739742 0.001338 -0.022458 255 0 0
-0.291790 -0.006162 0.096027 0 0 255
-0.843888 0.003882 -0.255366 255 0 0
-0.924191 -0.027332 0.026302 255 0 0
-0.820260 -0.027332 0.247760 255 0 0
-0.732117 0.014910 -0.236862 255 0 0
-0.712838 0.005105 -0.081963 255 0 0
0.544902 0.013586 0.013786 255 0 0
-0.156375 -0.027332 -0.188271 255 0 0
0.855524 -0.027332 0.243641 255 0 0
0.600614 0.002053 -0.033749 255 0 0
-0.920741 0.013367 -0.212494 127 0 127
-0.881611 0.009364 0.050605 0 0 255
0.360548 0.027989 -0.051775 127 127 0
0.781339 0.038031 -0.269038 255 0 0
-0.904714 0.011502 0.171388 153 0 76
0.196723 0.017489 0.114094 0 0 255
0.102717 0.006400 0.251390 0 127 127
0.412312 0.000968 0.283108 255 0 0
-0.467248 -0.003881 0.059994 255 0 0
0.196216 0.030349 -0.089069 76 153 0
0.340512 0.001293 0.281985 255 0 0
0.204388 -0.027332 0.192653 255 0 0
-0.544917 0.038854 -0.219433 153 76 0
-0.207584 0.009054 0.184581 76 0 153
0.119864 -0.011322 0.177548 255 0 0
0.924971 -0.027332 -0.102811 255 0 0
-0.375002 0.028485 -0.239867 255 0 0
0.630551 0.007318 -0.116927 255 0 0
-0.884905 -0.001130 0.016537 255 0 0
-0.269421 0.032770 -0.237686 76 153 0
-0.096200 0.016256 0.133571 0 255 0
0.013141 0.005333 -0.085561 255 0 0
-0.154347 -0.027332 -0.066578 255 0 0
0.959623 -0.026769 0.132589 255 0 0
0.713319 -0.027332 -0.033479 255 0 0
-0.913417 -0.027332 -0.037433 255 0 0
-0.717921 0.015672 0.142803 76 0 153
0.145967 0.009746 0.240411 0 127 127
-0.967821 0.028793 -0.147041 255 0 0
0.209291 0.001485 -0.024783 255 0 0
0.908285 -0.027332 0.113094 255 0 0
-0.757369 -0.027332 -0.170121 255 0 0
0.614624 0.035803 -0.233852 255 0 0
0.615085 -0.027332 -0.056886 255 0 0
0.759790 -0.027332 -0.089757 255 0 0
-0.275823 -0.027332 0.205673 255 0 0
0.855595 -0.001295 0.019146 255 0 0
-0.745848 -0.027332 -0.116301 255 0 0
0.819332 0.004181 0.134421 76 153 0
-0.012752 0.007686 -0.122746 255 0 0
0.537754 0.001075 -0.018306 255 0 0
-0.959404 0.008842 -0.248965 255 0 0
0.355962 0.006978 -0.111550 255 0 0
-0.148633 0.005537 -0.088791 255 0 0
-0.539398 0.016406 0.131206 76 0 153
0.022622 0.018628 0.038851 127 127 0
0.583743 -0.027332 0.278860 255 0 0
0.185018 -0.003482 0.053681 255 0 0
-0.276811 -0.027332 0.037111 255 0 0
-0.406493 0.004246 0.260926 76 0 153
0.167130 -0.027332 -0.227958 255 0 0
0.547168 0.008349 -0.133218 255 0 0
-0.889960 0.010428 -0.166064 255 0 0
-0.100946 -0.027332 -0.045101 255 0 0
0.928120 0.021896 -0.014145 255 0 0
-0.118069 -0.000410 0.005154 255 0 0
-0.017035 0.013610 -0.216325 255 0 0
-0.790649 -0.027332 0.131014 255 0 0
-0.453511 -0.027332 0.177607 255 0 0
0.914865 -0.000229 0.286696 255 0 0
-0.162127 0.034684 -0.272130 255 0 0
-0.907363 -0.004048 -0.250370 255 0 0
0.858294 -0.027332 -0.071415 255 0 0
0.179444 0.021238 -0.240643 255 0 0
0.756849 -0.009744 0.152617 255 0 0
-0.245488 0.012633 -0.200900 255 0 0
0.692714 0.032674 -0.125795 76 153 0
-0.883781 0.010915 0.221947 153 0 76
-0.845801 0.011939 -0.189928 255 0 0
0.825882 -0.003423 0.294314 255 0 0
-0.859971 0.002263 -0.037069 255 0 0
-0.090164 0.007079 -0.113155 255 0 0
-0.606378 0.005850 -0.093739 255 0 0
-0.526539 -0.027332 0.159241 255 0 0
-0.125327 -0.027332 -0.128567 255 0 0
0.626840 0.005757 0.173292 127 127 0
-0.231507 -0.027332 -0.195451 255 0 0
-0.888313 -0.001103 0.289020 255 0 0
-0.704826 0.036653 -0.235711 153 0 76
0.198056 -0.027332 0.264976 255 0 0
0.473586 0.005688 -0.091180 255 0 0
-0.492432 -0.027332 -0.201099 255 0 0
-0.204155 0.012929 -0.205576 255 0 0
0.678051 0.005237 -0.084046 255 0 0
0.593153 -0.027332 -0.012956 255 0 0
0.092159 -0.027332 -0.107671 255 0 0
0.583821 0.035991 -0.272048 255 0 0
-0.781363 -0.027332 -0.235307 255 0 0
0.610875 0.004392 -0.070706 255 0 0
0.073618 0.004527 -0.072829 255 0 0
0.246886 0.026812 -0.033188 76 0 153
-0.599125 -0.027332 -0.142096 255 0 0
0.281409 0.004692 0.241962 127 0 127
0.921048 0.030724 -0.153615 255 0 0
0.680119 -0.027332 -0.131376 255 0 0
-0.357983 0.007721 -0.123289 255 0 0
-0.707831 -0.001486 0.022160 255 0 0
0.759294 0.030745 -0.138139 153 0 76
-0.612818 0.039300 -0.230465 76 0 153
0.393874 -0.027332 -0.146291 255 0 0
-0.231182 -0.027332 -0.126247 255 0 0
0.301197 0.036532 -0.272013 255 0 0
0.093321 0.008110 0.070417 0 255 0
-0.218241 0.008958 0.057009 76 153 0
0.278352 -0.004657 0.072249 153 0 76
0.168558 -0.005394 0.083894 255 0 0
-0.363367 -0.027332 0.066029 255 0 0
0.456558 0.008857 -0.141235 255 0 0
-0.405439 -0.027332 -0.132140 255 0 0
0.111121 -0.027332 -0.150529 255 0 0
-0.025779 0.000672 0.255604 76 153 0
0.392189 -0.001710 0.225541 153 0 76
0.129009 0.005171 0.116846 0 0 255
0.085948 0.004581 0.183049 0 127 127
-0.004432 -0.027332 0.213593 255 0 0
0.948140 -0.027332 0.174191 255 0 0
0.358933 0.012712 -0.202133 255 0 0
-0.254960 0.007195 -0.114977 255 0 0
-0.806341 0.000083 0.285837 255 0 0
0.780257 -0.027332 -0.197628 255 0 0
-0.558832 0.000434 0.193909 76 0 153
-0.616125 0.007815 0.199020 76 153 0
0.062273 -0.027332 0.002156 255 0 0
-0.820975 0.021958 0.043497 0 0 255
0.004454 0.004261 0.131216 255 0 0
0.041439 -0.027332 0.281090 255 0 0
-0.869799 -0.027332 -0.150542 255 0 0
-0.459415 0.002031 -0.033403 255 0 0
0.329640 0.039433 -0.234296 153 76 0
0.959623 -0.008861 -0.083581 255 0 0
0.526115 -0.027332 0.055741 255 0 0
-0.301670 -0.027332 -0.039979 255 0 0
-0.760360 -0.027332 0.029225 255 0 0
0.883383 -0.027332 -0.120629 255 0 0
-0.469835 0.002750 0.155084 153 0 76
0.776529 -0.027332 -0.052293 255 0 0
-0.713812 -0.027332 -0.137808 255 0 0
0.737283 -0.006401 0.099809 0 127 127
0.378766 0.000323 0.193424 153 76 0
0.894174 -0.002053 0.031109 255 0 0
-0.337178 0.017358 0.010975 153 0 76
-0.493040 0.010155 0.235707 76 0 153
0.885670 -0.009635 0.150892 255 0 0
-0.305631 -0.027332 0.260738 255 0 0
0.184589 -0.010831 0.169785 255 0 0
0.110236 0.014875 -0.236306 255 0 0
0.453671 -0.012629 0.306368 255 0 0
0.959623 -0.006538 -0.146367 255 0 0
-0.378647 -0.002654 0.242702 76 0 153
0.782383 -0.004787 0.074311 255 0 0
-0.345214 -0.027332 0.215069 255 0 0
0.796493 -0.027332 0.276073 255 0 0
-0.738114 -0.007639 0.119355 255 0 0
-0.500210 0.006008 -0.096239 255 0 0
-0.487184 -0.000030 0.201239 76 0 153
-0.573094 -0.027332 -0.106123 255 0 0
-0.641047 -0.027332 0.169140 255 0 0
-0.677516 0.036538 -0.272013 255 0 0
0.554383 0.015904 0.080509 255 0 0
0.005116 0.012295 0.200144 76 153 0
0.037241 -0.027332 -0.125360 255 0 0
0.851360 -0.009278 0.145251 255 0 0
0.759151 -0.007403 0.300909 255 0 0
0.133661 0.022735 -0.117774 0 127 127
0.423577 0.031723 -0.106768 0 255 0
-0.380884 0.025757 -0.016513 76 0 153
-0.611294 -0.027332 0.275133 255 0 0
-0.869545 0.006270 -0.100376 255 0 0
-0.689569 0.017125 0.084928 127 0 127
-0.265658 -0.000627 0.008589 255 0 0
0.752116 0.024996 -0.004504 76 0 153
-0.313843 0.020947 0.059469 153 0 76
-0.410265 -0.003886 0.060070 255 0 0
0.630598 -0.027332 0.132537 255 0 0
0.852038 0.027658 -0.270345 255 0 0
0.058655 0.006672 0.093129 0 255 0
-0.754611 -0.005057 0.078573 255 0 0
0.068569 0.012690 -0.201801 0 255 0
0.037842 0.026323 -0.025458 0 0 255
0.729872 -0.027332 0.203598 255 0 0
0.901892 0.005017 0.252512 255 0 0
-0.831042 -0.027332 0.135665 255 0 0
-0.362965 -0.027332 -0.119253 255 0 0
-0.916055 0.005955 0.104457 153 0 76
0.743668 0.032308 -0.178634 255 0 0
0.931447 0.033234 -0.193256 255 0 0
-0.135655 0.016962 0.122423 0 255 0
-0.273022 0.003585 0.271273 255 0 0
-0.193677 0.003660 0.140713 255 0 0
-0.833280 0.001871 0.168980 153 0 76
0.630504 0.003951 0.268302 255 0 0
0.703943 0.024516 0.003090 153 0 76
-0.474954 0.004031 0.267486 255 0 0
-0.248779 -0.007563 0.118166 255 0 0
-0.470511 0.029651 -0.078032 0 0 255
-0.328471 0.002203 -0.254308 255 0 0
0.601908 0.009999 0.232429 76 0 153
0.714255 -0.027332 -0.080272 255 0 0
-0.485797 0.027037 -0.036741 153 0 76
-0.678122 -0.027332 0.260790 255 0 0
-0.510457 0.003620 0.174884 76 0 153
0.246830 0.010106 -0.259287 255 0 0
-0.837218 -0.001594 0.023856 255 0 0
-0.508972 0.002336 -0.038228 255 0 0
-0.428199 0.000164 0.198187 255 0 0
0.295527 0.033329 -0.194754 255 0 0
-0.352361 0.016868 0.123910 204 51 127
0.491267 -0.012781 0.200591 255 0 0
0.968040 -0.000091 0.279604 255 0 0
-0.285691 -0.027332 0.295769 255 0 0
-0.024900 0.002598 0.157492 127 127 0
-0.794458 -0.027332 -0.111899 255 0 0
0.229061 0.037707 -0.205305 0 0 255
-0.556445 -0.027332 -0.170809 255 0 0
0.525168 0.018457 0.040177 255 0 0
-0.004818 -0.027332 0.057980 255 0 0
-0.054217 0.009365 0.185483 153 76 0
0.679970 0.005998 0.103767 127 0 127
0.728279 0.019655 0.076884 255 0 0
-0.942374 0.020156 0.013340 255 0 0
-0.659985 0.001684 0.254903 76 153 0
0.825384 0.008716 0.212584 76 153 0
-0.966838 0.027576 -0.103878 255 0 0
0.704319 -0.027332 0.281809 255 0 0
-0.774484 -0.027332 -0.039884 255 0 0
0.946681 0.011693 0.147035 255 0 0
-0.641951 0.034055 -0.272170 255 0 0
0.653870 -0.002905 0.044579 255 0 0
0.326378 -0.027332 0.006841 255 0 0
-0.221346 0.004204 -0.067731 255 0 0
-0.913477 0.030320 -0.147230 255 0 0
-0.959404 -0.011103 0.052876 255 0 0
0.475534 -0.027332 -0.170222 255 0 0
-0.743417 0.027979 -0.051625 127 127 0
0.213055 -0.027332 0.036666 255 0 0
0.467137 -0.027332 0.177031 255 0 0
0.037202 0.003657 0.140754 255 0 0
-0.171361 0.021167 -0.135861 0 255 0
-0.228087 0.010328 -0.160371 255 0 0
0.397405 0.028410 -0.084249 0 255 0
-0.513010 -0.027332 0.250691 255 0 0
0.513242 0.028959 -0.271165 255 0 0
0.432088 -0.000978 0.014136 255 0 0
0.430736 -0.027332 0.113962 255 0 0
0.284865 -0.027332 0.132572 255 0 0
0.448720 0.011740 -0.186787 255 0 0
-0.937029 -0.027332 -0.010161 255 0 0
-0.568819 -0.027332 0.022065 255 0 0
0.084687 0.022310 0.037943 0 255 0
0.836718 -0.027332 -0.233116 255 0 0
0.635875 0.002228 -0.254324 255 0 0
-0.778866 0.003752 -0.060599 255 0 0
0.718827 -0.027332 -0.202652 255 0 0
0.578660 0.005290 -0.084882 255 0 0
0.300528 -0.027332 0.161423 255 0 0
0.959623 0.002409 -0.193851 255 0 0
0.381684 0.002888 -0.046947 127 127 0
-0.471165 0.022742 0.031110 153 76 0
-0.684642 0.029957 -0.159128 255 0 0
-0.143743 -0.027332 0.227065 255 0 0
0.625360 -0.027332 0.197678 255 0 0
0.393649 -0.027332 0.099220 255 0 0
0.882402 0.030408 -0.148615 255 0 0
-0.127210 -0.027332 -0.170070 255 0 0
0.111649 0.030757 -0.168688 0 255 0
0.886357 0.011581 0.209436 76 153 0
-0.959404 -0.001300 -0.209438 255 0 0
-0.391678 0.030816 -0.155064 255 0 0
-0.446860 -0.027332 -0.141714 255 0 0
0.877103 -0.027332 -0.014954 255 0 0
0.353052 -0.027332 0.178648 255 0 0
-0.279081 0.001735 -0.028724 255 0 0
0.130689 -0.027332 0.253887 255 0 0
-0.167846 0.000037 -0.001906 76 0 153
-0.210447 -0.027332 -0.221531 255 0 0
-0.952212 0.033037 -0.190145 255 0 0
-0.435623 0.002025 0.166541 153 0 76
0.245664 -0.001372 0.289690 255 0 0
-0.257992 0.003191 0.148123 0 0 255
-0.855947 -0.027332 -0.094802 255 0 0
0.383558 -0.027332 -0.071663 255 0 0
0.256427 0.015956 0.138308 0 0 255
-0.095773 0.020334 0.069159 127 0 127
0.019718 0.007589 -0.121203 255 0 0
0.390537 -0.027332 -0.008340 255 0 0
-0.466571 -0.027332 -0.010589 255 0 0
0.113172 -0.027332 -0.229980 255 0 0
0.540574 0.013488 -0.214398 255 0 0
0.652277 -0.027332 -0.071270 255 0 0
-0.109379 -0.027332 0.292513 255 0 0
0.574456 -0.001367 0.020276 255 0 0
0.755006 -0.003342 -0.250815 255 0 0
0.297623 -0.027332 0.233568 255 0 0
-0.875324 -0.027332 -0.022711 255 0 0
0.519901 0.003589 -0.058012 255 0 0
0.864332 -0.027332 0.277514 255 0 0
-0.601801 -0.027332 -0.210112 255 0 0
0.258231 0.030494 -0.149979 255 0 0
0.881526 0.012747 -0.260952 255 0 0
-0.575575 0.002151 0.164551 153 76 0
-0.821871 0.035614 -0.230856 255 0 0
-0.572874 -0.003259 0.050165 255 0 0
-0.430514 0.026227 -0.023945 153 0 76
-0.838109 -0.027332 -0.156843 255 0 0
0.314356 0.011108 -0.176807 255 0 0
0.486354 0.011551 0.149277 255 0 0
0.386425 -0.013920 0.307400 255 0 0
0.264918 -0.027332 -0.044266 255 0 0
-0.528210 0.031684 -0.110147 255 0 0
0.058999 -0.027332 -0.101546 255 0 0
-0.069231 -0.027332 -0.178704 255 0 0
-0.791560 0.006679 -0.106840 255 0 0
0.338026 0.004009 -0.064659 255 0 0
-0.633426 0.036839 -0.191593 76 0 153
-0.299857 0.013021 -0.207027 255 0 0
-0.828941 -0.027332 0.278797 255 0 0
-0.213018 0.032086 -0.116508 76 0 153
-0.040234 -0.027332 -0.225033 255 0 0
0.761395 -0.013485 0.211706 255 0 0
-0.300036 0.006776 -0.108359 255 0 0
0.333687 0.037850 -0.266177 255 0 0
-0.705989 -0.027332 0.170648 255 0 0
-0.918464 0.000179 -0.004141 255 0 0
-0.185554 -0.027332 -0.058942 255 0 0
-0.967604 0.015094 0.093318 255 0 0
-0.778181 0.004423 0.260937 204 51 127
-0.167312 0.013276 -0.211044 255 0 0
-0.238441 -0.027332 -0.022261 255 0 0
-0.130724 -0.027332 -0.031672 255 0 0
-0.904242 0.038032 -0.269066 255 0 0
0.436696 -0.027332 0.274291 255 0 0
-0.408085 0.007721 -0.257785 255 0 0
-0.942132 0.036038 -0.237560 255 0 0
-0.742531 -0.001294 0.019121 255 0 0
-0.515486 -0.027332 0.004881 255 0 0
-0.252725 -0.027332 0.274344 255 0 0
-0.697040 -0.027332 0.288282 255 0 0
0.692715 -0.027332 0.204134 255 0 0
-0.548437 -0.027332 0.278398 255 0 0
0.423094 -0.027332 -0.078290 255 0 0
0.541295 -0.027332 -0.049386 255 0 0
0.068160 -0.027332 -0.215844 255 0 0
0.897518 0.003316 -0.004555 255 0 0
0.715008 0.009536 0.239744 76 0 153
-0.908081 -0.004039 0.062494 255 0 0
0.171257 -0.008996 0.140799 255 0 0
0.086172 0.011019 0.150684 0 0 255
0.165809 0.011328 0.215418 0 127 127
0.351013 0.029944 -0.082665 255 0 0
0.585276 -0.027332 -0.152389 255 0 0
-0.789585 0.031591 -0.167310 255 0 0
0.441032 0.027749 -0.047991 127 0 127
0.870153 0.033631 -0.199535 255 0 0
-0.339227 -0.027332 0.279916 255 0 0
0.815661 -0.027332 -0.130758 255 0 0
-0.664694 0.036641 -0.212389 153 0 76
-0.660715 -0.027332 -0.221633 255 0 0
-0.581102 0.037007 -0.252869 255 0 0
-0.640210 -0.027332 -0.118219 255 0 0
-0.621046 -0.027332 0.233102 255 0 0
0.392130 0.008324 0.018296 255 0 0
-0.789177 0.002455 0.159742 153 0 76
-0.817961 -0.004378 0.067842 255 0 0
0.410337 0.016954 0.122542 204 51 127
-0.863237 -0.027332 0.018403 255 0 0
-0.149642 0.001943 -0.032009 255 0 0
0.302161 -0.027332 -0.181910 255 0 0
0.501382 0.033097 -0.170432 153 0 76
0.480142 0.030169 -0.144843 255 0 0
0.526669 -0.027332 0.090421 255 0 0
0.215872 -0.000932 0.013401 255 0 0
0.606285 -0.027332 -0.127315 255 0 0
0.747836 -0.027332 -0.019608 255 0 0
-0.958211 -0.027332 0.136812 255 0 0
-0.443745 0.036390 -0.184495 76 0 153
0.816337 0.009477 -0.143557 255 0 0
0.237560 0.023093 0.025569 153 0 76
-0.371931 -0.002648 0.040516 255 0 0
-0.555178 0.016988 -0.069835 255 0 0
-0.345532 -0.027332 -0.170532 255 0 0
-0.570153 -0.002677 0.243066 76 0 153
-0.959404 0.001112 -0.050657 255 0 0
-0.367841 0.013094 -0.208173 255 0 0
-0.745611 -0.027332 0.288820 255 0 0
-0.098053 -0.027332 -0.232387 255 0 0
0.825125 0.035928 -0.235813 255 0 0
0.094819 -0.027332 0.225984 255 0 0
0.132276 0.037449 -0.201220 204 51 127
0.680705 -0.027332 0.132361 255 0 0
-0.934914 -0.027362 0.309104 255 0 0
-0.370519 0.002111 -0.034663 255 0 0
-0.900240 -0.027332 0.276149 255 0 0
-0.043567 0.009911 0.041954 127 127 0
-0.330245 0.027922 -0.050718 76 0 153
0.345146 0.033102 -0.132553 255 0 0
0.915391 -0.027332 -0.221178 255 0 0
0.403960 0.000899 -0.015514 255 0 0
-0.525260 0.013723 -0.218112 255 0 0
-0.120487 -0.008740 0.136760 255 0 0
-0.607938 0.027736 -0.056432 0 0 255
-0.106607 0.036889 -0.192375 127 0 127
0.204287 -0.027332 -0.222153 255 0 0
0.816751 -0.027332 0.059377 255 0 0
-0.404533 -0.001565 0.023399 255 0 0
0.882236 0.006296 -0.100780 255 0 0
0.280868 0.006177 -0.098903 255 0 0
-0.402331 -0.027332 -0.190171 255 0 0
0.561613 0.005144 0.250501 255 0 0
-0.794479 0.003993 -0.255436 255 0 0
0.736197 0.038188 -0.271517 255 0 0
0.180058 0.036381 -0.184349 204 51 127
-0.413182 0.029597 -0.077175 204 51 127
0.651864 0.003094 0.149645 127 127 0
0.289124 -0.027332 0.289140 255 0 0
0.266737 0.014497 -0.230338 255 0 0
-0.535082 -0.027332 -0.088251 255 0 0
0.746207 -0.027332 0.029310 255 0 0
-0.871520 -0.005707 0.088840 255 0 0
0.820888 -0.015413 0.242168 255 0 0
-0.423725 -0.027332 0.038536 255 0 0
0.968040 0.020732 -0.063265 255 0 0
-0.353516 -0.011406 0.178862 255 0 0
0.675047 0.022109 0.041110 255 0 0
0.579208 -0.011589 0.305456 255 0 0
-0.048801 0.027031 -0.036641 255 0 0
-0.738705 0.012085 -0.182528 255 0 0
0.725086 0.035979 -0.236621 255 0 0
0.742741 -0.000319 0.260637 153 0 76
0.486305 -0.027332 -0.105206 255 0 0
0.099238 -0.027332 0.104641 255 0 0
0.444174 0.012104 0.199175 153 0 76
-0.034355 0.011074 -0.176268 255 0 0
0.272165 -0.027332 -0.112695 255 0 0
0.239476 0.017030 -0.070502 76 153 0
-0.192951 -0.027332 -0.114546 255 0 0
0.550377 -0.027332 0.274913 255 0 0
-0.563368 0.008708 -0.258406 255 0 0
-0.564465 -0.027332 -0.039538 255 0 0
-0.241738 0.002029 -0.033374 255 0 0
0.648803 0.007250 0.084004 255 0 0
-0.789714 -0.027332 0.088894 255 0 0
0.353212 0.001931 -0.031829 255 0 0
-0.525389 0.010192 -0.162335 255 0 0
-0.021368 -0.027332 0.268455 255 0 0
-0.472497 -0.027332 0.208914 255 0 0
0.501033 0.012830 -0.204006 255 0 0
0.096241 -0.027332 0.162973 255 0 0
0.669777 -0.027332 0.286987 255 0 0
0.690379 0.008399 0.171324 127 0 127
0.484921 -0.000888 0.012716 255 0 0
-0.217246 -0.027332 0.033118 255 0 0
0.058040 0.038385 -0.216017 0 255 0
-0.688008 0.036741 -0.190047 153 0 76
-0.565962 0.036783 -0.190704 153 76 0
0.507000 -0.027332 -0.141244 255 0 0
-0.070014 -0.027332 -0.028374 255 0 0
-0.393786 0.031575 -0.108435 204 51 127
0.620629 -0.002422 0.036941 255 0 0
0.214725 0.012194 -0.193961 255 0 0
-0.248700 0.035872 -0.176317 76 153 0
-0.637703 -0.027332 0.003766 255 0 0
0.939389 -0.027332 0.067334 255 0 0
-0.838415 -0.027332 -0.037006 255 0 0
0.612592 -0.027332 0.262682 255 0 0
-0.012144 -0.026125 0.309483 255 0 0
0.928472 -0.027332 -0.069758 255 0 0
0.251449 -0.007603 0.118784 255 0 0
-0.180788 0.036565 -0.187260 0 127 127
0.437976 -0.027332 -0.046355 255 0 0
-0.137325 -0.010797 0.169257 255 0 0
0.570145 -0.027332 0.102777 255 0 0
0.284781 0.018898 0.033222 255 0 0
0.959623 -0.006348 -0.029887 255 0 0
-0.489488 0.026820 -0.140136 0 0 255
0.345862 -0.015303 0.240428 255 0 0
0.065278 -0.027332 -0.166234 255 0 0
0.363628 0.013491 0.118627 255 0 0
-0.318276 0.012011 0.158117 0 0 255
-0.392073 -0.027332 0.077728 255 0 0
0.081701 0.010354 -0.164896 255 0 0
-0.938100 0.017924 0.048604 255 0 0
-0.497913 -0.007275 0.113616 255 0 0
0.032429 0.003943 0.182724 76 153 0
0.358494 -0.027332 0.273061 255 0 0
-0.206222 0.036312 -0.241879 255 0 0
0.208987 -0.006132 0.095555 255 0 0
0.841896 0.022746 0.033045 153 76 0
-0.878564 -0.010247 0.160563 255 0 0
0.475937 0.003493 0.251815 76 0 153
-0.557486 -0.027332 0.061886 255 0 0
0.457775 -0.027332 -0.229031 255 0 0
-0.588452 0.024584 0.002013 0 0 255
-0.150883 0.012420 0.186297 76 0 153
-0.202770 0.029799 -0.080378 76 0 153
-0.165819 0.006973 -0.257313 255 0 0
-0.298530 0.008883 -0.141653 255 0 0
-0.926615 -0.027332 0.146592 255 0 0
0.068554 0.002022 0.241837 76 153 0
-0.550940 0.020401 -0.014571 0 0 255
0.166564 -0.027332 -0.058311 255 0 0
-0.328812 0.004331 0.263347 255 0 0
-0.283829 -0.027332 -0.072439 255 0 0
0.023178 -0.014623 0.229695 255 0 0
-0.653924 0.000731 -0.012868 255 0 0
0.958548 -0.027332 -0.211718 255 0 0
-0.643900 -0.007385 0.115347 255 0 0
0.564977 -0.027332 0.043140 255 0 0
-0.565108 0.032192 -0.118175 255 0 0
-0.602571 -0.002548 0.038930 255 0 0
0.628202 -0.027332 0.101918 255 0 0
-0.124803 0.004314 -0.069469 255 0 0
0.652835 0.031245 -0.161832 255 0 0
0.450788 0.027546 -0.270275 255 0 0
-0.813816 0.025949 -0.019545 255 0 0
-0.763077 0.022566 -0.096434 0 255 0
-0.301804 0.017522 -0.263960 255 0 0
0.308180 0.003874 0.268982 255 0 0
-0.863348 0.009343 0.246778 153 0 76
0.896415 0.034627 -0.215260 255 0 0
0.206259 0.036285 -0.241464 255 0 0
0.020370 0.035718 -0.173880 127 127 0
0.113831 0.003849 -0.062119 255 0 0
-0.328923 0.006144 -0.098374 255 0 0
-0.363245 0.024042 -0.268068 255 0 0
0.228655 -0.027332 -0.095905 255 0 0
-0.694742 0.019132 -0.103706 0 255 0
0.722957 -0.001116 0.016311 255 0 0
-0.515692 -0.002728 0.041771 255 0 0
-0.812173 0.001937 0.242154 153 0 76
-0.831709 0.027412 -0.075005 0 255 0
-0.632469 0.001560 0.173878 153 76 0
-0.445600 0.006150 0.101366 153 0 76
0.016061 -0.027332 -0.186619 255 0 0
0.100873 0.032768 -0.127279 0 127 127
0.639044 0.000081 -0.002604 255 0 0
0.789990 0.024286 0.005814 76 0 153
-0.849860 -0.000873 0.288447 255 0 0
0.678852 0.025899 -0.018757 153 0 76
-0.945645 0.008724 0.193936 255 0 0
0.881057 -0.027332 0.201707 255 0 0
0.031247 0.000576 -0.010411 255 0 0
0.800701 0.032618 -0.124912 153 0 76
-0.030998 0.005625 -0.090188 255 0 0
0.872558 0.009487 0.242505 76 153 0
-0.644692 0.004064 -0.065523 255 0 0
0.246588 0.012550 -0.199577 255 0 0
0.445480 0.016338 0.073652 255 0 0
0.591080 0.022703 0.031720 0 0 255
0.433688 0.039257 -0.234386 76 0 153
-0.720848 0.022201 0.039660 0 127 127
0.206458 -0.008205 0.128296 255 0 0
-0.825295 -0.027332 0.180280 255 0 0
-0.084573 -0.027332 0.273780 255 0 0
0.382243 0.016787 0.066564 255 0 0
0.260202 0.001438 0.175818 127 0 127
0.934462 -0.027332 -0.027786 255 0 0
0.169839 -0.027332 0.284398 255 0 0
-0.112360 0.008540 -0.136237 255 0 0
0.067579 -0.027332 -0.028920 255 0 0
0.130558 -0.004332 0.067110 255 0 0
-0.882592 -0.027332 -0.079657 255 0 0
-0.117545 0.028029 -0.048411 153 0 76
-0.366957 0.036269 -0.182586 153 0 76
-0.854267 -0.012894 0.202381 255 0 0
0.824467 -0.027332 0.181232 255 0 0
0.294251 -0.027332 0.085561 255 0 0
0.548871 -0.013830 0.217170 255 0 0
0.591715 0.004144 0.133070 127 127 0
-0.028911 0.002071 -0.034041 255 0 0
-0.156283 -0.005623 0.087517 255 0 0
-0.669443 -0.027332 -0.043160 255 0 0
0.140743 -0.027332 0.193739 255 0 0
0.638032 -0.027332 0.234251 255 0 0
-0.423978 0.014487 -0.230177 255 0 0
0.327971 -0.027332 -0.030710 255 0 0
-0.372371 0.033063 -0.131937 204 51 127
-0.806590 -0.027332 -0.150341 255 0 0
-0.959404 0.005333 -0.123009 255 0 0
-0.137842 0.010732 -0.170856 255 0 0
0.796079 0.027337 -0.056636 76 0 153
0.919729 -0.027332 -0.167901 255 0 0
0.889996 -0.027332 -0.158317 255 0 0
-0.565918 -0.027332 0.130445 255 0 0
-0.485794 -0.027332 -0.060934 255 0 0
-0.607513 0.031800 -0.111988 204 51 127
-0.067541 -0.027332 -0.148637 255 0 0
0.163631 0.010643 -0.169448 255 0 0
-0.733416 -0.003154 0.252347 255 0 0
0.210827 -0.027332 -0.013359 255 0 0
0.296361 0.007329 0.215975 255 0 0
0.151243 -0.027332 0.067616 255 0 0
0.776993 0.006237 -0.099848 255 0 0
0.036195 -0.027332 0.087880 255 0 0
-0.380358 -0.027332 0.002948 255 0 0
0.604862 0.031549 -0.166646 255 0 0
-0.027084 -0.027332 0.004040 255 0 0
0.933542 0.037761 -0.271936 255 0 0
-0.497536 -0.004699 0.072916 255 0 0
0.687640 -0.018145 -0.241489 255 0 0
-0.959404 -0.007362 -0.013898 255 0 0
0.438301 0.007267 -0.116124 255 0 0
-0.156216 0.013616 0.144067 0 255 0
0.221688 -0.003799 -0.250527 255 0 0
0.386769 0.006530 -0.104481 255 0 0
0.311211 -0.014698 -0.243660 255 0 0
-0.088056 -0.027332 0.160125 255 0 0
-0.060330 0.032852 -0.128599 127 127 0
0.939152 -0.009858 0.303782 255 0 0
0.020310 0.013951 -0.221719 255 0 0
0.244444 0.001056 -0.017995 255 0 0
-0.809302 0.031544 -0.107942 0 255 0
0.557915 0.025917 -0.077667 255 0 0
-0.053188 0.033888 -0.203591 255 0 0
0.513968 0.011906 0.202299 76 0 153
0.600961 0.025624 -0.014413 204 51 127
0.027720 0.029500 -0.075642 127 0 127
0.354508 -0.001151 0.016866 255 0 0
-0.060928 -0.013307 0.208895 255 0 0
0.641947 0.022993 0.027147 0 0 255
0.483568 0.031236 -0.103078 76 153 0
-0.112473 0.039474 -0.233221 127 0 127
0.724132 -0.027332 0.153136 255 0 0
-0.603087 0.003403 0.238633 76 0 153
0.294665 0.012900 0.127964 255 0 0
0.638942 -0.000536 0.207004 76 0 153
0.125036 -0.027332 -0.086453 255 0 0
0.473889 -0.027332 0.000450 255 0 0
0.349429 0.014800 -0.235132 255 0 0
0.298514 0.022729 -0.027301 255 0 0
0.033020 0.004728 -0.255899 255 0 0
-0.934772 0.027034 -0.095314 255 0 0
0.184993 0.032660 -0.137164 76 153 0
0.719693 -0.027332 0.088025 255 0 0
-0.135103 0.007319 -0.116950 255 0 0
-0.720566 -0.001816 0.290784 255 0 0
0.773707 0.005541 0.173453 0 127 127
0.913168 -0.027332 0.231007 255 0 0
-0.296487 0.004604 0.125792 0 0 255
0.251121 0.006181 -0.098967 255 0 0
-0.344545 -0.027332 -0.095443 255 0 0
0.153582 -0.027332 0.114569 255 0 0
-0.789224 -0.027332 0.235974 255 0 0
0.907563 -0.001045 -0.252262 255 0 0
0.780880 -0.027332 0.014448 255 0 0
-0.427963 0.002864 -0.046571 255 0 0
-0.316677 0.036562 -0.200308 153 0 76
-0.005324 0.007066 0.086904 127 127 0
-0.822293 0.005880 0.105642 153 0 76
-0.605849 -0.027332 0.090554 255 0 0
-0.546399 0.008281 -0.132141 255 0 0
-0.747122 -0.010713 0.167926 255 0 0
0.433593 -0.013383 0.210101 255 0 0
-0.875407 -0.027332 0.187366 255 0 0
0.161683 0.029010 -0.074542 76 153 0
0.732958 -0.011399 0.178759 255 0 0
0.936601 0.026210 -0.082296 255 0 0
-0.537081 0.035832 -0.175681 153 76 0
-0.579053 -0.027332 0.262712 255 0 0
0.387461 -0.000310 0.132810 255 0 0
0.897518 0.007122 -0.059114 255 0 0
0.040709 0.031614 -0.134861 127 0 127
-0.650686 -0.027332 0.202358 255 0 0
0.846429 0.003146 0.274018 255 0 0
-0.530970 0.037196 -0.255856 255 0 0
0.420111 -0.027332 -0.022414 255 0 0
0.432236 0.013405 -0.213089 255 0 0
0.453509 -0.005549 0.098380 255 0 0
-0.936265 -0.027332 -0.091734 255 0 0
-0.067354 -0.027332 0.114106 255 0 0
0.594542 -0.011682 0.183233 255 0 0
0.350924 -0.027332 0.066004 255 0 0
-0.690620 -0.003986 0.061649 255 0 0
0.184104 0.028126 -0.053939 76 0 153
0.072562 -0.027332 0.278760 255 0 0
0.291446 0.025764 -0.075256 255 0 0
-0.073918 -0.027332 0.246211 255 0 0
0.124188 -0.027332 -0.031346 255 0 0
-0.058273 -0.005319 0.082716 255 0 0
0.135158 -0.027332 0.283960 255 0 0
-0.939619 0.031349 -0.163482 255 0 0
0.286404 0.028437 -0.117482 255 0 0
-0.116483 -0.004311 0.066791 255 0 0
-0.019756 0.031018 -0.158253 255 0 0
-0.307608 -0.027332 -0.229712 255 0 0
0.084423 -0.001178 0.017284 255 0 0
-0.398697 -0.027332 -0.102606 255 0 0
-0.339718 0.014444 -0.229498 255 0 0
-0.648758 -0.027332 0.296864 255 0 0
-0.308026 -0.027332 0.146098 255 0 0
0.074081 -0.003232 0.049741 255 0 0
-0.399449 0.006880 0.089836 76 0 153
-0.581739 0.012227 -0.194475 255 0 0
0.693951 0.006975 -0.111510 76 153 0
-0.043791 0.002138 0.278817 255 0 0
-0.225417 -0.010845 0.170011 255 0 0
-0.527849 -0.014174 0.222601 255 0 0
-0.252037 -0.013783 0.216420 255 0 0
0.934574 0.006709 0.225771 255 0 0
-0.510740 -0.027332 -0.148522 255 0 0
0.194660 -0.013828 0.217125 255 0 0
-0.303259 -0.011930 0.187150 255 0 0
-0.658805 -0.027332 -0.163426 255 0 0
-0.091570 0.001172 -0.019836 255 0 0
-0.290422 -0.003519 0.054280 255 0 0
-0.225159 -0.006065 0.094488 255 0 0
-0.573556 -0.005349 0.083186 255 0 0
-0.459873 0.033037 -0.131530 0 0 255
0.111727 0.025490 -0.012300 204 51 127
-0.615175 0.004185 0.132419 153 76 0
0.162153 0.006086 -0.097463 255 0 0
-0.489621 0.000741 -0.013029 255 0 0
-0.555191 -0.020797 -0.239818 255 0 0
-0.179083 0.020195 0.071342 0 127 127
0.222092 -0.011063 0.173444 255 0 0
0.416691 0.019096 0.030081 255 0 0
0.002527 0.037330 -0.199346 127 127 0
-0.470244 -0.000973 0.014057 255 0 0
0.705855 0.031966 -0.173222 255 0 0
-0.521641 0.027636 -0.046201 153 0 76
0.049943 -0.006570 0.299785 255 0 0
-0.259986 0.003593 -0.058078 255 0 0
0.833850 -0.005671 0.088264 153 76 0
0.496264 -0.027332 -0.230408 255 0 0
0.124398 0.001746 -0.028900 255 0 0
0.387468 0.013189 -0.209681 255 0 0
0.959623 -0.013507 0.083667 255 0 0
0.144274 0.017799 -0.264134 255 0 0
-0.492628 0.010805 -0.172018 153 76 0
0.493611 -0.027332 0.271383 255 0 0
0.042417 0.004521 -0.072748 255 0 0
0.814492 0.004363 -0.070239 153 0 76
0.066683 0.030087 -0.084931 0 127 127
0.051720 0.035710 -0.173752 0 255 0
-0.224795 0.010086 -0.259275 255 0 0
-0.906188 -0.027332 0.200963 255 0 0
-0.277442 0.035167 -0.171974 76 153 0
-0.039134 -0.027332 -0.053850 255 0 0
0.817792 -0.027332 -0.030914 255 0 0
0.039319 0.006425 0.251371 76 153 0
-0.484801 0.038848 -0.223323 76 0 153
0.497543 0.006985 -0.257321 255 0 0
-0.013115 0.003611 -0.058363 255 0 0
0.312551 -0.027332 0.035059 255 0 0
-0.344281 0.019262 0.086086 153 0 76
-0.598087 -0.007484 0.301018 255 0 0
0.236977 0.037234 -0.256459 255 0 0
0.633348 0.017360 0.116136 127 127 0
0.000839 -0.027332 -0.021036 255 0 0
0.459053 0.035745 -0.174300 76 0 153
-0.089203 0.030494 -0.091360 127 127 0
-0.339303 0.002467 -0.040298 255 0 0
0.152239 -0.014194 0.222920 255 0 0
-0.862234 0.036815 -0.249829 255 0 0
-0.367164 -0.007667 0.119803 255 0 0
-0.028586 -0.008373 0.130963 255 0 0
0.225055 0.019707 0.079051 153 0 76
-0.667960 0.001516 0.174584 76 0 153
-0.520691 0.037517 -0.202302 153 76 0
0.778473 0.000262 -0.005461 255 0 0
-0.623550 0.000719 -0.253373 255 0 0
0.087925 0.002221 0.278487 255 0 0
0.134021 0.010152 -0.161698 255 0 0
-0.864750 0.000425 -0.008040 255 0 0
-0.410932 0.033086 -0.132307 204 51 127
-0.096404 -0.002902 0.044528 255 0 0
0.046315 0.024578 0.002102 0 0 255
0.857469 0.019479 0.084655 153 76 0
0.534222 0.011103 0.156355 255 0 0
0.029957 -0.027332 0.161546 255 0 0
-0.466127 0.007083 -0.113208 255 0 0
-0.044199 0.009870 -0.259139 255 0 0
0.426598 0.036434 -0.185189 76 0 153
0.314174 -0.011565 0.181375 255 0 0
-0.365188 -0.027332 0.236417 255 0 0
0.395009 0.028026 -0.270578 255 0 0
0.247847 0.039146 -0.228040 0 0 255
0.065334 -0.009022 0.141201 255 0 0
0.831240 0.007171 -0.114610 255 0 0
-0.511522 0.004147 -0.066836 255 0 0
-0.445702 -0.025521 -0.236842 255 0 0
-0.711037 -0.027332 0.112434 255 0 0
-0.529466 -0.000002 0.286070 255 0 0
0.891072 -0.027332 0.288085 255 0 0
0.874062 -0.027332 -0.185374 255 0 0
-0.669387 -0.002488 0.037989 255 0 0
-0.191046 0.030506 -0.159093 255 0 0
-0.433066 0.038364 -0.215674 76 0 153
-0.367875 -0.027332 0.281733 255 0 0
0.362661 -0.027332 -0.092449 255 0 0
0.333804 0.035882 -0.176467 153 76 0
-0.070601 0.014343 -0.227900 255 0 0
-0.770629 0.017801 0.067855 0 127 127
-0.886392 -0.027332 0.250995 255 0 0
-0.111304 -0.013921 0.218603 153 76 0
-0.004556 -0.011964 0.187686 255 0 0
0.438681 0.025868 -0.018267 127 0 127
0.081417 0.015776 -0.240989 255 0 0
0.628643 -0.004343 0.067288 255 0 0
-0.381425 0.015160 0.150892 204 51 127
0.828438 0.026476 -0.025883 153 76 0
0.060526 -0.027332 0.057671 255 0 0
-0.873319 -0.018218 0.309984 255 0 0
0.477452 0.013995 0.110674 255 0 0
-0.614736 -0.027332 -0.036311 255 0 0
0.079608 -0.007268 0.113507 255 0 0
0.746173 0.005794 -0.092849 255 0 0
0.876583 0.018114 0.106227 76 153 0
-0.118155 0.000899 0.188332 153 76 0
0.524880 0.031312 -0.104283 76 153 0
0.879341 -0.027332 -0.213631 255 0 0
0.801069 0.001704 0.280534 255 0 0
0.450418 0.004032 -0.065015 255 0 0
0.238975 0.008769 -0.139855 255 0 0
0.437868 0.001591 0.173391 153 0 76
-0.217014 0.025124 -0.006511 76 0 153
0.509508 0.008841 -0.140994 255 0 0
0.220220 0.015977 0.137990 0 0 255
0.839903 0.002712 -0.044165 255 0 0
0.030566 -0.027332 0.015799 255 0 0
-0.018621 0.025451 -0.011691 255 0 0
-0.161806 -0.003834 0.059245 255 0 0
-0.727446 0.008066 -0.128749 255 0 0
0.535642 -0.015778 0.247933 255 0 0
-0.121780 0.032207 -0.122289 0 255 0
0.928422 0.010311 0.168865 255 0 0
-0.634252 0.016568 0.088401 127 0 127
0.185067 -0.027332 0.076317 255 0 0
-0.468441 -0.007169 0.111942 255 0 0
0.114381 -0.005957 0.092790 255 0 0
-0.833157 0.033963 -0.204782 255 0 0
-0.035233 0.022599 -0.112634 127 127 0
0.411755 -0.027332 -0.168429 255 0 0
0.045225 -0.003411 0.052573 255 0 0
0.959623 -0.007634 0.021617 255 0 0
-0.070066 0.008902 -0.141954 255 0 0
0.404056 0.030142 -0.144418 0 255 0
0.814152 -0.010095 -0.246561 255 0 0
-0.174158 -0.027332 0.154967 255 0 0
-0.160472 -0.027332 0.291822 255 0 0
-0.197177 0.000346 0.285038 255 0 0
0.769991 -0.027332 0.265628 255 0 0
0.757456 0.027374 -0.042060 76 0 153
-0.193130 0.000887 -0.015336 255 0 0
0.134454 0.013643 -0.216849 255 0 0
0.732804 0.000706 -0.012469 255 0 0
0.471804 0.013457 -0.213912 153 0 76
-0.864442 0.031778 -0.111633 127 127 0
0.551563 -0.027332 -0.211751 255 0 0
-0.698514 -0.014983 0.235373 255 0 0
0.009566 -0.003438 0.053000 255 0 0
-0.407785 -0.027332 -0.035044 255 0 0
0.536559 0.035952 -0.177569 153 0 76
-0.454363 0.033343 -0.237395 255 0 0
0.900048 0.036400 -0.243275 255 0 0
0.397866 -0.027332 -0.204627 255 0 0
-0.684219 0.027710 -0.047376 255 0 0
-0.735790 -0.027332 0.010472 255 0 0
-0.967821 0.004321 0.242585 255 0 0
0.649230 0.024883 -0.049047 204 51 127
-0.263371 0.029563 -0.076649 76 0 153
-0.050349 -0.027332 0.065618 255 0 0
0.402405 0.002383 0.175805 204 51 127
0.773085 0.029607 -0.077340 153 0 76
0.953512 0.017731 0.051657 255 0 0
-0.072724 -0.008880 0.138964 255 0 0
0.300861 0.014639 0.100503 255 0 0
-0.931188 -0.027332 0.185358 255 0 0
-0.385160 -0.027332 -0.224951 255 0 0
-0.186926 -0.027332 -0.016441 255 0 0
-0.955383 -0.027332 0.284892 255 0 0
0.497063 0.025090 -0.057779 0 127 127
-0.090039 0.012419 -0.197515 255 0 0
0.718121 0.016115 0.135796 127 0 127
-0.366211 -0.027332 -0.058816 255 0 0
0.099313 -0.027332 0.009995 255 0 0
0.244293 -0.027332 0.241744 255 0 0
-0.089091 0.033354 -0.170623 127 0 127
-0.217932 0.037411 -0.207382 0 127 127
-0.876511 0.038374 -0.215836 127 0 127
-0.056701 -0.014121 -0.244024 255 0 0
0.591962 -0.027332 -0.181419 255 0 0
0.661997 -0.027332 0.097915 255 0 0
-0.372691 0.004180 -0.067358 255 0 0
-0.408870 -0.027332 0.287765 255 0 0
0.643831 -0.027332 0.001340 255 0 0
-0.670479 0.004215 0.131948 76 0 153
-0.095625 -0.027332 -0.199941 255 0 0
-0.860525 0.010280 -0.163725 255 0 0
0.396402 -0.003599 0.260429 255 0 0
-0.185652 -0.012113 0.190044 255 0 0
-0.918306 -0.027332 -0.232741 255 0 0
0.532625 -0.003080 0.293602 255 0 0
-0.896031 -0.027332 0.033009 255 0 0
0.201521 0.003241 -0.052527 255 0 0
-0.419319 0.021626 0.052746 76 0 153
-0.602652 0.014073 -0.223634 255 0 0
-0.560559 -0.027332 0.216757 255 0 0
0.213141 0.030886 -0.156162 255 0 0
-0.175296 0.036618 -0.246722 0 127 127
-0.319563 -0.000892 0.214856 76 0 153
0.010973 0.031665 -0.109856 127 0 127
0.142256 -0.000884 0.012647 255 0 0
-0.208069 0.015648 0.026482 0 127 127
0.308316 0.006602 -0.105618 255 0 0
-0.030284 0.019396 0.083971 127 127 0
0.728301 0.031322 -0.107968 76 153 0
-0.423029 -0.007304 0.114070 255 0 0
-0.941175 0.013785 0.113988 255 0 0
-0.233168 -0.027332 -0.064656 255 0 0
0.805942 -0.002881 0.044193 255 0 0
0.574313 0.029165 -0.132908 255 0 0
0.862228 -0.004078 0.063104 255 0 0
-0.155363 0.035372 -0.174367 0 127 127
-0.585221 0.030106 -0.143844 255 0 0
0.234075 0.030747 -0.095345 76 153 0
-0.062118 -0.027332 0.033653 255 0 0
-0.657295 0.030332 -0.088793 204 51 127
-0.545199 -0.027332 0.105518 255 0 0
0.429723 -0.027332 -0.108070 255 0 0
0.097557 -0.027332 -0.047066 255 0 0
-0.495364 -0.009789 0.153329 255 0 0
0.515664 0.014514 -0.230608 255 0 0
0.469257 0.001519 -0.025321 255 0 0
-0.335919 -0.002068 0.291357 255 0 0
-0.713575 0.032995 -0.126871 0 255 0
0.117220 0.029494 -0.075552 0 127 127
0.959623 -0.015937 0.200701 255 0 0
-0.674356 -0.027332 0.105365 255 0 0
-0.441004 0.010693 -0.170246 255 0 0
0.710360 0.008454 -0.134872 255 0 0
-0.769784 -0.008004 0.125123 255 0 0
0.167830 0.021110 0.056890 153 0 76
-0.294679 -0.014862 0.233473 255 0 0
0.275598 0.012621 -0.200710 255 0 0
-0.467614 0.011816 -0.187983 255 0 0
-0.443703 -0.027332 -0.182754 255 0 0
-0.134989 -0.027332 -0.099156 255 0 0
-0.761917 -0.027332 0.266006 255 0 0
0.105698 -0.007963 0.124479 255 0 0
-0.554942 -0.005164 0.297600 255 0 0
-0.630380 -0.027332 -0.088766 255 0 0
0.723348 -0.003403 0.052444 255 0 0
-0.604666 -0.011568 0.181435 255 0 0
-0.350794 -0.027332 0.149914 255 0 0
0.687382 -0.000960 0.288665 255 0 0
0.507159 0.009164 0.245620 76 0 153
-0.610702 0.026433 -0.027201 0 0 255
-0.596064 -0.007103 0.110893 255 0 0
-0.901470 0.024935 -0.003526 255 0 0
0.328812 -0.027344 0.305023 255 0 0
-0.628878 -0.027332 0.144048 255 0 0
-0.681557 0.020792 -0.240671 255 0 0
-0.547517 -0.008956 0.140170 255 0 0
0.590962 -0.027332 0.056161 255 0 0
0.337840 0.018265 0.043216 255 0 0
0.889138 -0.007510 0.117322 255 0 0
-0.285385 -0.027332 -0.100136 255 0 0
-0.435164 0.009735 0.242342 76 0 153
-0.503929 -0.003238 -0.250880 255 0 0
-0.079094 0.022158 0.040330 127 0 127
-0.746538 -0.027332 -0.088575 255 0 0
-0.791310 -0.027332 0.040304 255 0 0
0.608238 0.006136 -0.098249 255 0 0
0.347997 0.010534 0.165351 255 0 0
-0.341355 0.036578 -0.246095 255 0 0
0.876701 -0.027332 0.068789 255 0 0
-0.458283 -0.027332 -0.102158 255 0 0
-0.705301 -0.027332 0.059055 255 0 0
-0.274214 0.003079 0.175287 0 0 255
-0.742508 -0.013739 0.215726 255 0 0
-0.268550 0.021647 0.048417 76 153 0
-0.852325 -0.027332 -0.126592 255 0 0
-0.028574 -0.000061 -0.000356 255 0 0
0.170109 -0.027332 -0.168426 255 0 0
-0.787892 -0.004575 0.070950 255 0 0
0.650160 -0.027332 -0.041242 255 0 0
-0.094870 0.019532 -0.240751 255 0 0
0.056360 -0.010567 -0.246263 255 0 0
-0.746036 -0.027332 -0.144115 255 0 0
0.807706 0.014576 0.160124 0 127 127
0.553017 0.028281 -0.115019 255 0 0
-0.760289 0.009850 0.238775 204 51 127
-0.686225 -0.027332 -0.166675 255 0 0
0.645275 0.009000 -0.143504 255 0 0
-0.631304 -0.002205 0.033517 255 0 0
-0.846301 -0.007341 0.114648 255 0 0
0.682332 -0.000169 0.201200 76 0 153
-0.712312 0.001152 -0.019518 255 0 0
-0.641446 0.032964 -0.130369 204 51 127
-0.693660 -0.009236 0.144586 76 0 153
-0.089059 -0.005005 0.077743 255 0 0
-0.630946 -0.003447 0.258726 76 153 0
0.748192 0.023134 0.024924 0 255 0
-0.070505 0.003512 -0.056805 255 0 0
0.856314 -0.027332 0.010151 255 0 0
-0.791499 -0.027332 -0.201386 255 0 0
-0.530217 0.030031 -0.142661 255 0 0
0.504823 -0.006563 0.299775 255 0 0
0.102553 0.007198 -0.115026 255 0 0
0.828975 0.030866 -0.097227 76 0 153
-0.313324 -0.027332 0.037225 255 0 0
-0.422223 -0.001452 0.289890 255 0 0
-0.723941 0.029223 -0.074701 0 255 0
0.538219 0.014497 0.102739 255 0 0
0.286870 -0.027332 0.044952 255 0 0
0.015893 -0.001431 0.021281 255 0 0
-0.016528 -0.027332 0.115081 255 0 0
-0.910593 0.032253 -0.119137 127 127 0
-0.004817 -0.025444 -0.236890 255 0 0
-0.890498 0.036695 -0.189314 127 0 127
-0.809431 -0.000727 0.214014 204 51 127
-0.176343 0.002599 -0.042377 255 0 0
-0.736517 -0.003382 0.052111 255 0 0
0.599056 -0.005849 0.091075 255 0 0
0.033685 0.034898 -0.236604 127 127 0
0.699247 -0.027332 0.015463 255 0 0
-0.811449 -0.009408 0.147307 153 0 76
-0.890302 0.028026 -0.052370 255 0 0
0.071378 0.026278 -0.024756 0 0 255
-0.764954 -0.002692 0.041214 255 0 0
0.775435 -0.002767 0.242241 153 0 76
-0.915812 0.004762 -0.076549 255 0 0
0.365303 0.008605 -0.137258 255 0 0
0.332533 -0.027332 -0.099502 255 0 0
-0.228921 0.008277 -0.132077 255 0 0
-0.445614 0.020645 0.064239 76 0 153
-0.365334 0.027619 -0.045937 76 0 153
0.520056 -0.027332 0.149360 255 0 0
0.138254 -0.009459 0.148106 255 0 0
-0.051668 0.031301 -0.162720 255 0 0
0.315167 0.014630 -0.232445 255 0 0
0.489053 -0.027332 0.224575 255 0 0
0.332885 0.005707 -0.091470 255 0 0
-0.738084 0.013224 -0.210225 255 0 0
0.901983 -0.027332 0.038019 255 0 0
-0.610095 0.012401 -0.197232 255 0 0
0.257596 0.019363 0.084496 153 0 76
-0.479886 0.014112 0.124729 153 0 76
-0.486021 -0.027332 0.012538 255 0 0
0.942582 -0.027332 -0.151316 255 0 0
0.617213 -0.027332 -0.232984 255 0 0
0.932826 -0.027332 -0.200153 255 0 0
0.582276 -0.014780 0.232168 255 0 0
0.113361 0.013065 0.187980 0 127 127
-0.503173 0.024433 0.004393 153 0 76
-0.766742 0.001596 -0.026533 255 0 0
-0.741821 0.020008 0.074304 0 127 127
0.773690 0.017517 0.113658 0 127 127
-0.769253 0.022608 0.025958 0 127 127
-0.898058 0.001323 -0.022225 255 0 0
-0.773676 -0.011318 0.177481 255 0 0
-0.193710 -0.027332 0.046926 255 0 0
-0.802936 -0.027332 -0.069096 255 0 0
-0.267137 0.006760 0.091730 76 153 0
0.143834 0.026474 -0.027841 204 51 127
-0.894572 0.014819 -0.235420 255 0 0
0.668011 0.029587 -0.077028 76 153 0
0.629897 -0.004266 0.296000 255 0 0
-0.906072 -0.027332 -0.104106 255 0 0
-0.221061 -0.011401 0.259936 255 0 0
0.269512 -0.027332 0.166953 255 0 0
0.828513 -0.027332 -0.082965 255 0 0
0.547232 0.004057 -0.065415 255 0 0
0.422065 -0.027332 0.146773 255 0 0
-0.088893 -0.012315 0.193232 255 0 0
-0.358474 0.011055 -0.175958 255 0 0
0.059502 0.022961 0.027644 0 255 0
0.797447 0.030804 -0.154867 255 0 0
-0.169618 -0.027332 0.004978 255 0 0
0.802364 0.019980 0.074747 0 255 0
0.679886 -0.009775 0.153108 255 0 0
-0.957406 0.023212 -0.034943 255 0 0
0.246902 -0.002954 0.045352 255 0 0
-0.333189 0.036024 -0.178714 153 0 76
0.647760 -0.011488 0.180166 255 0 0
-0.137916 -0.027332 -0.228717 255 0 0
-0.404823 -0.027332 0.157951 255 0 0
-0.131175 -0.002813 0.246971 153 76 0
-0.026560 -0.027332 -0.140924 255 0 0
0.526804 0.025934 -0.019309 0 127 127
-0.548154 -0.002212 0.033619 255 0 0
0.018081 -0.027332 -0.214458 255 0 0
-0.479614 0.035900 -0.176751 76 0 153
-0.438317 -0.027332 0.005552 255 0 0
-0.381543 0.019841 0.023614 76 0 153
-0.283592 0.025429 -0.011338 153 76 0
-0.287363 0.030696 -0.094546 153 0 76
0.170217 -0.002377 0.240077 127 0 127
-0.404785 -0.012886 0.202258 255 0 0
0.100270 0.036887 -0.250970 255 0 0
0.616226 0.032202 -0.118336 0 127 127
0.634113 0.002615 -0.042624 255 0 0
0.103545 -0.027332 0.283788 255 0 0
-0.194965 0.027951 -0.051176 76 0 153
-0.967821 0.003895 0.156329 255 0 0
-0.013400 -0.027332 -0.166824 255 0 0
-0.716110 0.001334 0.203403 204 51 127
0.289286 0.020583 0.006601 255 0 0
0.561537 0.023201 -0.034756 255 0 0
-0.119929 0.025766 -0.016656 153 0 76
0.857728 0.032488 -0.122856 76 0 153
-0.654729 -0.027332 0.028132 255 0 0
-0.706601 0.003790 0.253048 76 153 0
-0.172536 -0.013346 0.259812 255 0 0
-0.604775 0.022824 0.029820 76 0 153
0.479955 0.026299 -0.025074 0 127 127
0.714018 -0.027332 0.119806 255 0 0
-0.460512 -0.027332 -0.042771 255 0 0
-0.814988 0.002250 -0.036862 255 0 0
0.371631 -0.027332 0.010901 255 0 0
0.549063 0.013869 -0.186835 255 0 0
0.064824 0.036554 -0.245703 0 255 0
-0.306290 0.025345 -0.037114 153 76 0
-0.592944 0.002291 -0.037513 255 0 0
0.857049 -0.006540 0.101991 255 0 0
-0.465048 -0.009624 -0.246857 255 0 0
0.471301 -0.027332 -0.068026 255 0 0
-0.497882 0.030043 -0.084234 0 0 255
0.687094 0.003517 -0.056884 255 0 0
-0.342323 -0.006777 0.105744 255 0 0
0.877926 -0.016351 0.256993 255 0 0
0.705364 0.027804 -0.048857 153 0 76
-0.592126 0.013241 0.186961 76 0 153
0.968040 0.029271 -0.133383 255 0 0
0.361779 -0.027332 -0.160270 255 0 0
0.552022 -0.027332 -0.160507 255 0 0
0.259719 0.032159 -0.117657 76 153 0
-0.397097 -0.007895 0.123402 255 0 0
-0.702751 -0.027332 0.016552 255 0 0
0.793251 0.002586 -0.042176 255 0 0
-0.515198 0.017152 0.119416 76 0 153
-0.264897 -0.004694 0.296802 255 0 0
-0.046176 0.016640 0.127512 127 127 0
-0.350455 -0.002603 0.241888 76 0 153
-0.828658 0.019791 0.077738 0 0 255
-0.750226 0.026120 -0.022252 127 127 0
-0.812603 -0.002331 0.035503 255 0 0
0.272528 0.026146 -0.041296 76 0 153
0.168637 -0.027332 -0.001363 255 0 0
0.697747 0.009472 0.048893 255 0 0
-0.178608 0.007042 -0.112575 255 0 0
-0.694740 0.016645 0.127425 76 0 153
-0.775332 -0.001637 0.290352 255 0 0
-0.416272 0.006948 -0.111076 255 0 0
-0.592739 -0.027332 0.129235 255 0 0
-0.019721 0.036599 -0.246417 127 127 0
-0.850055 -0.027332 0.046830 255 0 0
0.574598 -0.004889 0.075910 255 0 0
0.101878 0.037375 -0.200063 0 255 0
0.133408 0.030089 -0.143576 255 0 0
-0.672056 -0.005716 0.088979 255 0 0
-0.518740 0.022784 0.030453 153 76 0
-0.127040 0.013352 -0.261332 255 0 0
-0.185146 0.014549 -0.231162 255 0 0
0.230968 0.010585 0.227167 127 0 127
-0.363841 0.013002 0.186593 76 0 153
0.959623 -0.002376 -0.109679 255 0 0
-0.787440 0.025376 -0.010496 127 127 0
-0.158783 0.038329 -0.215134 0 127 127
0.236337 -0.027332 -0.070260 255 0 0
-0.272228 -0.027332 0.064035 255 0 0
0.565191 -0.027332 0.012915 255 0 0
-0.032254 -0.027332 0.206413 255 0 0
-0.670380 0.006570 -0.105117 255 0 0
-0.500863 -0.002173 0.291594 255 0 0
-0.066197 -0.027332 -0.094845 255 0 0
-0.012285 0.033024 -0.131322 127 0 127
-0.959404 -0.000440 0.014313 255 0 0
-0.859592 -0.002519 0.038470 255 0 0
-0.928243 -0.027332 0.273519 255 0 0
0.216663 -0.015882 0.249587 255 0 0
-0.069639 0.036381 -0.242981 255 0 0
-0.959404 -0.018871 0.232338 255 0 0
-0.019752 -0.002972 0.045629 255 0 0
-0.552750 0.030594 -0.092929 255 0 0
0.941939 0.013561 0.117530 255 0 0
0.065320 0.032034 -0.115678 0 127 127
-0.453472 0.030948 -0.098521 0 0 255
0.615577 -0.027332 0.001499 255 0 0
0.272252 -0.012648 0.198499 255 0 0
-0.659812 -0.001537 0.226814 76 153 0
-0.450740 -0.008986 0.140643 255 0 0
-0.070170 0.026972 -0.073025 127 127 0
0.151392 0.004089 -0.065916 255 0 0
0.659418 -0.015992 0.251322 255 0 0
-0.460817 -0.027332 0.070862 255 0 0
-0.244662 -0.001965 0.029723 255 0 0
